0.2936	-0.0854	0.0845
0.2893	-0.0858	0.0837
0.2863	-0.0866	0.0829
0.2850	-0.0834	0.0806
0.2822	-0.0856	0.0796
0.2779	-0.0873	0.0778
0.2748	-0.0899	0.0627
0.2697	-0.0886	0.0614
0.2720	-0.0888	0.0480
0.2696	-0.0904	0.0473
0.2714	-0.0921	0.0400
0.2679	-0.0922	0.0406
0.2726	-0.0894	0.0336
0.2771	-0.0902	0.0186
0.2682	0.0213	0.1268
0.2739	0.0269	0.1246
0.2693	0.0288	0.1239
0.2717	0.0254	0.1241
0.2655	0.0246	0.1202
0.2555	0.0221	0.1087
0.2423	0.0271	0.1035
0.2429	0.0275	0.0999
0.2351	0.0192	0.0703
0.2390	0.0160	0.0656
0.2326	0.0145	0.0633
0.2356	0.0166	0.0597
0.2402	0.0236	0.0451
0.2423	0.0222	0.0390
0.2416	0.0214	0.0353
0.2420	0.0170	0.0420
0.2437	0.0192	0.0391
0.2421	0.0150	0.0359
0.2452	0.0149	0.0319
0.2443	0.0217	0.0301
0.7880	0.1693	0.1966
0.7912	0.1682	0.1954
0.7938	0.1627	0.1967
0.7981	0.1690	0.1949
0.8017	0.1708	0.1957
0.8072	0.1666	0.2001
0.8088	0.1651	0.1992
0.8113	0.1663	0.2026
0.8285	0.1778	0.1968
0.8271	0.1790	0.1981
0.8298	0.1778	0.1944
0.8324	0.1787	0.1952
0.8371	0.1825	0.1909
0.8404	0.1914	0.1916
0.8448	0.1894	0.1945
0.8473	0.1916	0.1920
0.8466	0.1905	0.1918
0.8484	0.1890	0.1884
0.8509	0.1942	0.1886
0.8535	0.1961	0.1825
0.8549	0.1969	0.1856
0.7398	0.2888	0.2343
0.7393	0.2896	0.2314
0.7367	0.2767	0.2366
0.7531	0.2859	0.2386
0.7548	0.2884	0.2398
0.7514	0.2823	0.2416
0.7496	0.2829	0.2454
0.7563	0.2759	0.2522
0.7601	0.2738	0.2501
0.7630	0.2725	0.2512
0.7695	0.2649	0.2473
0.7952	0.2641	0.2503
0.8176	0.2656	0.2480
0.8190	0.2659	0.2449
0.8229	0.2675	0.2482
0.8257	0.2668	0.2481
0.8334	0.2567	0.2383
0.8378	0.2621	0.2360
0.8430	0.2626	0.2239
0.8448	0.2625	0.2237
0.8456	0.2627	0.2211
0.8455	0.2585	0.2164
0.8504	0.2597	0.2135
0.3076	-0.1223	0.0171
0.3073	-0.1236	0.0177
0.3053	-0.1312	0.0112
0.3115	-0.1239	0.0088
0.3206	-0.1179	0.0015
0.3207	-0.1183	-0.0026
0.3226	-0.1198	0.0050
0.3269	-0.1182	-0.0050
0.3337	-0.1111	-0.0052
0.3357	-0.1068	-0.0039
0.3370	-0.1085	-0.0050
0.3434	-0.1147	-0.0048
0.3592	-0.1209	-0.0018
0.3593	-0.1195	-0.0011
0.2747	-0.0088	0.0248
0.2776	-0.0128	0.0244
0.2770	-0.0161	0.0279
0.2789	-0.0097	0.0249
0.2827	-0.0229	0.0196
0.2835	-0.0152	0.0159
0.2890	-0.0120	0.0143
0.2935	-0.0200	0.0029
0.2976	-0.0166	0.0020
0.3126	-0.0293	-0.0016
0.3131	-0.0107	-0.0056
0.3155	-0.0184	-0.0070
0.3163	-0.0033	-0.0059
0.3277	-0.0129	-0.0058
0.3378	-0.0187	-0.0045
0.3430	-0.0077	-0.0023
0.3459	-0.0068	0.0018
0.3686	-0.0029	0.0076
0.3708	-0.0112	0.0073
0.3737	-0.0149	0.0081
0.3743	-0.0054	0.0083
0.2969	-0.1329	0.0306
0.2963	-0.1300	0.0256
0.2969	-0.1378	0.0290
0.2993	-0.1387	0.0286
0.3054	-0.1295	0.0200
0.3041	-0.1230	0.0130
0.3014	-0.1245	0.0117
0.3062	-0.1288	0.0190
0.3093	-0.1286	0.0111
0.3133	-0.1265	0.0131
0.3132	-0.1275	0.0081
0.3174	-0.1266	0.0062
0.3202	-0.1276	0.0014
0.3264	-0.1249	0.0025
0.3290	-0.1284	-0.0005
0.3321	-0.1316	0.0011
0.3326	-0.1292	0.0005
0.3367	-0.1265	0.0010
0.3398	-0.1266	0.0022
0.3480	-0.1340	0.0030
0.3496	-0.1324	0.0021
0.3514	-0.1350	0.0042
0.3592	-0.1277	0.0074
0.3609	-0.1284	0.0030
0.3648	-0.1327	0.0062
0.3676	-0.1333	0.0064
0.2737	-0.0229	0.0326
0.2764	-0.0242	0.0281
0.2807	-0.0316	0.0261
0.2827	-0.0212	0.0195
0.2855	-0.0254	0.0201
0.2925	-0.0220	0.0155
0.3029	-0.0228	0.0065
0.3053	-0.0221	0.0079
0.3081	-0.0241	0.0044
0.3160	-0.0201	0.0035
0.3195	-0.0261	-0.0003
0.3210	-0.0158	0.0045
0.3328	-0.0105	0.0013
0.3463	-0.0039	-0.0009
0.3578	-0.0017	0.0061
0.3665	-0.0095	0.0090
0.3703	-0.0060	0.0083
0.3671	-0.0073	0.0074
0.3618	-0.0975	0.0031
0.3623	-0.0962	-0.0049
0.3612	-0.1076	-0.0018
0.3607	-0.1104	-0.0028
0.3693	-0.1058	0.0082
0.3801	-0.1011	0.0120
0.3796	-0.1057	0.0206
0.3790	-0.0988	0.0250
0.3807	-0.1134	0.0403
0.3794	-0.1164	0.0461
0.3804	-0.1057	0.0546
0.3786	-0.1113	0.0641
0.3770	-0.1161	0.0738
0.3649	-0.0140	0.0093
0.3712	-0.0132	-0.0016
0.3682	-0.0127	0.0062
0.3726	-0.0177	0.0136
0.3771	-0.0157	0.0180
0.3873	-0.0152	0.0272
0.3875	-0.0128	0.0313
0.3923	-0.0099	0.0348
0.3956	-0.0081	0.0388
0.3960	-0.0053	0.0409
0.3937	-0.0044	0.0510
0.3980	-0.0050	0.0508
0.3976	-0.0058	0.0569
0.3984	-0.0061	0.0670
0.3964	-0.0125	0.0862
0.3939	-0.0180	0.1044
0.3914	-0.0167	0.1132
0.3947	-0.0185	0.1100
0.3923	-0.0195	0.1042
