-0.1464	-0.4041	0.2714
-0.1435	-0.4029	0.2728
-0.1376	-0.4032	0.2818
-0.1346	-0.3978	0.2745
-0.1311	-0.4016	0.2786
-0.1265	-0.4046	0.2837
-0.1246	-0.4005	0.2824
-0.1206	-0.3887	0.2793
-0.1135	-0.3894	0.2864
-0.1096	-0.4017	0.2782
-0.0949	-0.3863	0.2940
-0.0896	-0.3963	0.2922
-0.0721	-0.4138	0.2872
-0.0745	-0.4203	0.2971
-0.0710	-0.4149	0.2927
-0.0684	-0.4082	0.2929
-0.0650	-0.4111	0.2943
-0.0562	-0.4075	0.2958
-0.0513	-0.4101	0.2921
-0.0361	-0.4163	0.2899
-0.0348	-0.4092	0.2878
-0.0246	-0.4143	0.2853
-0.0107	-0.4114	0.2825
0.0080	-0.4223	0.2768
0.0252	-0.4094	0.2642
0.0345	-0.4286	0.2589
0.0466	-0.4215	0.2591
0.0541	-0.4140	0.2515
0.0602	-0.4083	0.2460
0.0662	-0.4072	0.2427
0.0712	-0.4128	0.2380
0.0774	-0.4073	0.2418
0.0801	-0.4120	0.2374
0.0857	-0.4146	0.2308
0.0902	-0.4159	0.2251
0.0936	-0.4179	0.2227
0.1018	-0.4116	0.2192
0.1035	-0.4158	0.2146
0.1075	-0.4150	0.2061
0.1112	-0.4171	0.2033
0.1145	-0.4171	0.2001
0.1211	-0.4143	0.1974
0.1235	-0.4125	0.1954
0.1244	-0.4142	0.1969
0.1236	-0.4161	0.1975
0.1211	-0.4119	0.2019
0.1162	-0.4130	0.2017
0.1149	-0.4158	0.2066
0.1096	-0.4081	0.2137
0.1046	-0.4018	0.2151
0.0987	-0.4050	0.2156
0.0906	-0.4077	0.2253
0.0885	-0.4072	0.2336
0.0768	-0.4054	0.2331
0.0713	-0.4055	0.2379
0.0641	-0.3988	0.2433
0.0534	-0.3935	0.2522
0.0449	-0.3987	0.2604
0.0313	-0.4018	0.2624
0.0277	-0.3999	0.2683
0.0230	-0.3930	0.2652
0.0238	-0.3962	0.2722
0.0178	-0.4067	0.2722
0.0123	-0.4056	0.2684
0.0092	-0.4057	0.2740
0.0042	-0.4040	0.2769
-0.0077	-0.4078	0.2801
-0.0171	-0.4084	0.2860
-0.0263	-0.4094	0.2894
-0.0731	-0.4080	0.2902
-0.0837	-0.4113	0.2849
-0.1053	-0.4101	0.2861
-0.1101	-0.4119	0.2831
-0.1155	-0.4104	0.2795
-0.1225	-0.4085	0.2770
-0.1265	-0.4124	0.2812
-0.1287	-0.4091	0.2781
-0.1264	-0.4148	0.2761
-0.0837	-0.4087	0.2775
-0.0704	-0.4075	0.2742
-0.0599	-0.4059	0.2816
-0.0468	-0.4119	0.2862
-0.0455	-0.4147	0.2776
-0.0416	-0.4153	0.2737
-0.0300	-0.4148	0.2737
-0.0142	-0.4151	0.2579
0.0053	-0.4209	0.2524
0.0180	-0.4230	0.2471
0.0283	-0.4284	0.2399
0.0334	-0.4262	0.2312
0.0812	-0.4346	0.1992
0.0828	-0.4302	0.1898
0.0846	-0.4359	0.1925
0.0910	-0.4269	0.1767
0.0951	-0.4335	0.1815
0.0966	-0.4323	0.1624
0.1018	-0.4330	0.1584
0.1008	-0.4321	0.1497
0.1124	-0.4263	0.1319
0.1121	-0.3913	0.2175
0.1085	-0.3926	0.2128
0.1141	-0.4207	0.1783
0.1165	-0.4239	0.1708
0.1273	-0.3864	0.1996
0.1361	-0.3872	0.1952
0.1371	-0.3856	0.1890
0.1083	-0.3699	0.1613
0.1126	-0.3733	0.1526
0.1587	-0.3808	0.1651
0.1714	-0.3816	0.1437
0.1750	-0.3838	0.1407
0.1731	-0.3772	0.1333
0.1779	-0.3774	0.1201
0.1884	-0.4069	0.0769
0.1907	-0.3933	0.0708
0.1921	-0.3666	0.1001
0.1917	-0.3594	0.0979
0.1929	-0.3599	0.0934
0.1929	-0.3682	0.0829
0.1943	-0.3658	0.0787
0.1947	-0.3670	0.0754
0.1963	-0.3703	0.0675
0.2004	-0.3751	0.0577
0.2009	-0.3750	0.0528
0.1967	-0.3747	0.0429
0.2034	-0.3765	0.0342
0.2033	-0.3777	0.0294
0.1996	-0.3741	0.0239
0.2011	-0.3728	0.0174
0.2089	-0.3758	0.0123
0.2119	-0.3825	0.0047
0.2091	-0.3854	-0.0039
0.2081	-0.3794	-0.0109
0.2109	-0.3770	-0.0127
0.2084	-0.3843	-0.0199
0.2064	-0.3880	-0.0259
0.2054	-0.3859	-0.0281
0.2092	-0.3953	-0.0263
0.2036	-0.3993	-0.0275
0.2041	-0.4055	-0.0288
0.2103	-0.4000	-0.0189
0.2050	-0.3950	-0.0159
0.2133	-0.3944	-0.0070
0.1981	-0.4129	0.0094
0.2006	-0.3989	0.0112
0.2010	-0.4018	0.0177
0.1961	-0.4090	0.0152
0.2025	-0.4224	-0.0093
0.2020	-0.4237	-0.0119
0.2091	-0.4089	-0.0144
0.2014	-0.4155	-0.0181
0.1951	-0.4189	-0.0248
0.1872	-0.3997	-0.0331
0.1921	-0.4079	-0.0300
0.1924	-0.4060	-0.0243
0.1896	-0.4086	-0.0215
0.1899	-0.4072	-0.0146
0.1922	-0.4080	-0.0084
0.2029	-0.4143	0.0230
0.2043	-0.4185	0.0268
0.2050	-0.4225	0.0261
0.2000	-0.4169	0.0300
0.1992	-0.4212	0.0375
0.1801	-0.4190	0.0338
0.1591	-0.4119	0.0292
0.1806	-0.4101	0.0581
0.1997	-0.4083	0.0643
0.2110	-0.4089	0.0649
0.2108	-0.4136	0.0725
0.2082	-0.4065	0.0800
0.2073	-0.4120	0.0836
0.2039	-0.4163	0.0982
0.1816	-0.4048	0.1480
0.1805	-0.4028	0.1546
0.1774	-0.4000	0.1572
0.1729	-0.3950	0.1638
0.1700	-0.3935	0.1659
0.1727	-0.3947	0.1690
0.1689	-0.3912	0.1683
0.1696	-0.3906	0.1700
0.1606	-0.3918	0.1780
0.1421	-0.3945	0.1756
0.1360	-0.4001	0.1809
0.1411	-0.4026	0.1849
0.1400	-0.4028	0.1865
0.1369	-0.3990	0.1870
0.1380	-0.3979	0.1897
0.1231	-0.3974	0.1982
0.1124	-0.4019	0.2049
0.1118	-0.4179	0.2129
0.1028	-0.4072	0.2076
0.0921	-0.4071	0.1994
0.0952	-0.4178	0.1969
0.0973	-0.4096	0.1930
0.1065	-0.4072	0.1934
0.1110	-0.4112	0.1904
0.1139	-0.4086	0.1805
0.1169	-0.4094	0.1729
0.1278	-0.4062	0.1644
0.1293	-0.4089	0.1561
0.1239	-0.4116	0.1449
0.1193	-0.4112	0.1335
0.1118	-0.4014	0.1277
0.1416	-0.4032	0.0960
0.1405	-0.4015	0.0519
0.1093	-0.3994	-0.0162
0.1102	-0.4026	-0.0183
0.1155	-0.4065	-0.0118
0.1030	-0.4068	-0.0124
0.0908	-0.4103	-0.0172
0.0992	-0.4082	-0.0243
0.1119	-0.4028	-0.0701
0.1190	-0.4048	-0.0698
-0.1554	-0.3838	0.2735
-0.1586	-0.3847	0.2730
-0.1564	-0.3875	0.2737
-0.1599	-0.3897	0.2660
-0.1726	-0.3889	0.2638
-0.1765	-0.3881	0.2538
-0.1791	-0.3862	0.2514
-0.1856	-0.3911	0.2411
-0.1912	-0.3906	0.2360
-0.1977	-0.3845	0.2291
-0.1858	-0.3836	0.1955
-0.2056	-0.3854	0.1962
-0.2035	-0.3822	0.1850
-0.2004	-0.3848	0.1790
-0.2208	-0.3902	0.1766
-0.2260	-0.3945	0.1595
-0.2283	-0.3797	0.1477
-0.2321	-0.3831	0.1321
-0.2265	-0.3862	0.1246
-0.2291	-0.3854	0.1113
-0.2264	-0.3872	0.0995
-0.2335	-0.3868	0.0990
-0.2290	-0.3890	0.0967
-0.2294	-0.3861	0.0887
-0.2287	-0.3867	0.0812
-0.2293	-0.3860	0.0738
-0.2272	-0.3843	0.0664
-0.2233	-0.3807	0.0554
-0.2207	-0.3986	0.0338
-0.2146	-0.4045	0.0170
-0.2129	-0.3970	0.0127
-0.2160	-0.3961	0.0117
-0.2163	-0.4023	0.0152
-0.2196	-0.4039	0.0239
-0.2232	-0.4005	0.0382
-0.2245	-0.3981	0.0519
-0.2261	-0.3999	0.0568
-0.2277	-0.3993	0.0676
-0.2297	-0.4047	0.0770
-0.2298	-0.4096	0.0846
-0.2285	-0.4011	0.1111
-0.2279	-0.3986	0.1251
-0.2287	-0.4045	0.1471
-0.2224	-0.4023	0.1562
-0.2210	-0.4020	0.1622
-0.2209	-0.4017	0.1715
-0.2219	-0.3943	0.1827
-0.2197	-0.3929	0.1892
-0.2212	-0.3912	0.1934
-0.2150	-0.3900	0.1949
-0.2160	-0.3913	0.2020
-0.2133	-0.3925	0.2072
-0.2067	-0.3933	0.2180
-0.1953	-0.3891	0.2352
-0.1864	-0.3922	0.2445
-0.1772	-0.3926	0.2614
-0.1728	-0.3942	0.2697
-0.1682	-0.3956	0.2706
-0.1622	-0.3959	0.2723
-0.1540	-0.4004	0.2706
-0.2080	-0.3894	0.2141
-0.2107	-0.4050	0.1894
-0.2105	-0.4039	0.1797
-0.2140	-0.3908	0.1743
-0.2164	-0.3913	0.1536
-0.2152	-0.3970	0.1377
-0.2094	-0.3970	0.1256
-0.2069	-0.3892	0.0944
-0.2200	-0.3860	0.0858
-0.2206	-0.3859	0.0828
-0.2261	-0.3819	0.0834
-0.2230	-0.3830	0.0885
-0.2221	-0.3865	0.0827
-0.2173	-0.3931	0.0309
-0.2158	-0.3823	0.0235
-0.2194	-0.3863	0.0222
-0.2143	-0.3935	0.0158
-0.2131	-0.3966	0.0124
-0.2166	-0.3985	0.0149
-0.2122	-0.3984	0.0133
-0.2104	-0.4017	0.0135
-0.1862	-0.4005	0.0454
-0.2033	-0.4111	0.0566
-0.2205	-0.3998	0.0884
-0.2113	-0.4022	0.0870
-0.2113	-0.4017	0.0942
-0.2181	-0.4020	0.1012
-0.2136	-0.4034	0.1033
-0.2091	-0.4167	0.1514
-0.2098	-0.4089	0.1576
-0.2006	-0.4082	0.1565
-0.2043	-0.4015	0.1629
-0.2062	-0.3955	0.1742
-0.2080	-0.3761	0.1925
-0.2029	-0.4565	0.3497
1.6645	3.4725	-2.6170
1.6578	3.4773	-2.6237
1.6718	3.4793	-2.6240
1.6386	3.4834	-2.6207
1.6421	3.4711	-2.6280
1.6431	3.4651	-2.6295
1.6405	3.4625	-2.6249
1.6449	3.4655	-2.6293
1.6438	3.4618	-2.6306
1.6434	3.4618	-2.6313
1.6478	3.4577	-2.6351
1.6466	3.4597	-2.6392
1.6457	3.4654	-2.6398
1.6475	3.4613	-2.6380
1.6488	3.4556	-2.6388
1.6497	3.4503	-2.6410
1.6495	3.4512	-2.6430
1.6533	3.4557	-2.6465
1.6529	3.4543	-2.6484
1.6526	3.4523	-2.6474
1.6558	3.4511	-2.6636
1.6556	3.4523	-2.6708
1.6569	3.4507	-2.6717
1.6831	3.4714	-2.6950
1.6617	3.4478	-2.6875
1.6639	3.4457	-2.6904
1.6669	3.4474	-2.6923
1.6724	3.4505	-2.7018
1.6961	3.4598	-2.7147
1.6987	3.4527	-2.7136
1.7003	3.4575	-2.7092
1.6701	3.4311	-2.6859
1.6694	3.4287	-2.6815
1.6645	3.4180	-2.6797
1.6607	3.4279	-2.6638
1.6613	3.4280	-2.6584
1.6594	3.4261	-2.6513
1.6555	3.4261	-2.6414
1.6577	3.4306	-2.6362
1.6560	3.4330	-2.6302
1.6555	3.4395	-2.6254
1.6550	3.4359	-2.6212
1.6518	3.4466	-2.6047
1.6530	3.4363	-2.5922
1.6574	3.3967	-2.6003
1.6835	3.3750	-2.6430
1.6618	3.3559	-2.6328
1.6702	3.3536	-2.6385
1.6839	3.3597	-2.6477
1.6892	3.3629	-2.6594
1.8396	3.4971	-2.9998
1.8402	3.4892	-3.0017
1.8414	3.4907	-3.0025
1.8455	3.4966	-3.0032
1.8616	3.5095	-3.0143
1.8501	3.4876	-3.0121
1.8686	3.4705	-3.0333
1.8765	3.4711	-3.0441
1.8793	3.4654	-3.0490
1.8798	3.4618	-3.0530
1.8814	3.4626	-3.0532
1.8864	3.4673	-3.0544
1.8893	3.4726	-3.0598
1.8939	3.4730	-3.0623
1.8955	3.4683	-3.0654
1.8975	3.4661	-3.0669
1.8950	3.4666	-3.0623
1.8922	3.4625	-3.0590
1.8903	3.4616	-3.0504
1.8871	3.4571	-3.0468
1.8795	3.4509	-3.0388
1.8729	3.4433	-3.0302
1.8641	3.4288	-3.0208
1.8532	3.4157	-3.0115
1.8474	3.4129	-3.0077
1.8460	3.4136	-3.0058
1.8413	3.4112	-3.0022
1.8103	3.3983	-2.9595
1.8110	3.3931	-2.9516
1.8060	3.3917	-2.9401
1.8040	3.3947	-2.9374
1.8015	3.3837	-2.9203
1.8036	3.3696	-2.9187
1.8111	3.3766	-2.9248
1.8075	3.3692	-2.9237
1.8129	3.3675	-2.9225
1.8458	3.3673	-2.9573
1.8528	3.3750	-2.9596
1.8415	3.3580	-2.9708
1.8389	3.3548	-2.9692
1.8432	3.3587	-2.9714
1.8399	3.3522	-2.9753
1.8442	3.3553	-2.9765
1.8422	3.3599	-2.9829
1.8466	3.3632	-2.9865
1.8454	3.3572	-2.9885
1.8504	3.3566	-2.9905
1.8499	3.3517	-2.9908
1.8513	3.3507	-2.9923
1.8574	3.3500	-2.9929
1.8579	3.3497	-2.9937
1.8613	3.3552	-2.9966
1.8591	3.3595	-2.9987
1.8625	3.3661	-2.9989
1.8695	3.3587	-3.0021
1.8741	3.3577	-3.0047
1.8772	3.3596	-3.0104
1.8774	3.3586	-3.0102
1.8848	3.3669	-3.0145
1.8836	3.3632	-3.0122
1.8887	3.3698	-3.0147
1.9073	3.3784	-3.0195
1.9077	3.3739	-3.0039
1.9048	3.3731	-3.0082
1.9013	3.3707	-3.0042
