0.1604	-0.1279	-0.1241
0.1495	-0.1376	-0.1196
0.1524	-0.1413	-0.1177
0.1430	-0.1536	-0.1136
0.1444	-0.1564	-0.1105
0.1366	-0.1564	-0.1151
0.1370	-0.1618	-0.1165
0.1319	-0.1674	-0.1196
0.1277	-0.1741	-0.1223
0.1272	-0.1794	-0.1245
0.1426	-0.1887	-0.1295
0.1498	-0.1999	-0.1380
0.1440	-0.1994	-0.1434
0.1080	-0.1687	-0.1491
0.1126	-0.1726	-0.1622
0.1190	-0.1735	-0.1644
0.1253	-0.1725	-0.1684
0.1229	-0.1680	-0.1753
0.1359	-0.1595	-0.1760
0.1386	-0.1601	-0.1822
0.1373	-0.1598	-0.1903
0.1445	-0.1647	-0.1919
0.1429	-0.1568	-0.1963
0.1478	-0.1548	-0.1987
0.1494	-0.1520	-0.2020
0.1520	-0.1470	-0.2093
0.1591	-0.1500	-0.2195
0.1662	-0.1601	-0.2214
0.1669	-0.1557	-0.2263
0.1630	-0.1510	-0.2293
0.1776	-0.1478	-0.2300
0.1839	-0.1454	-0.2302
0.1937	-0.1429	-0.2274
0.1874	-0.1356	-0.2366
0.1873	-0.1402	-0.2433
0.1909	-0.1449	-0.2414
0.1846	-0.1439	-0.2469
0.1828	-0.1423	-0.2497
0.1901	-0.1314	-0.2509
0.1895	-0.1274	-0.2589
0.1893	-0.1279	-0.2588
0.1865	-0.1176	-0.2643
0.1925	-0.1178	-0.2641
0.1980	-0.0947	-0.2684
0.1957	-0.0919	-0.2701
0.1900	-0.0808	-0.2774
0.1938	-0.0879	-0.2741
0.1969	-0.0956	-0.2682
0.1938	-0.0886	-0.2658
0.1917	-0.0831	-0.2671
0.1947	-0.0809	-0.2644
0.1954	-0.0833	-0.2560
0.1944	-0.0850	-0.2520
0.1984	-0.0894	-0.2467
0.2026	-0.0979	-0.2422
0.2006	-0.0995	-0.2402
0.2058	-0.1013	-0.2350
0.1994	-0.1011	-0.2340
0.1992	-0.1030	-0.2360
0.2041	-0.1052	-0.2287
0.1929	-0.1060	-0.2259
0.1942	-0.1092	-0.2233
0.1983	-0.1114	-0.2214
0.1948	-0.1113	-0.2220
0.1929	-0.0979	-0.2115
0.1937	-0.1002	-0.2034
0.1879	-0.1042	-0.2007
0.1842	-0.1056	-0.1974
0.1752	-0.1010	-0.2006
0.1826	-0.1012	-0.1987
0.1793	-0.0941	-0.1984
0.1688	-0.0913	-0.2005
0.1684	-0.0917	-0.1968
0.1634	-0.0940	-0.1966
0.1351	-0.0826	-0.1966
0.1356	-0.0885	-0.1948
0.1360	-0.0862	-0.1927
0.1347	-0.0926	-0.1904
0.1359	-0.0938	-0.1955
0.1708	-0.1157	-0.1673
0.1635	-0.1160	-0.1690
0.1717	-0.1231	-0.1409
0.1717	-0.1473	-0.1296
0.1713	-0.1510	-0.1262
0.1645	-0.1452	-0.1261
0.1409	-0.1454	-0.1181
0.1174	-0.1767	-0.1087
0.1294	-0.1582	-0.1030
0.1291	-0.1636	-0.1008
0.1247	-0.1649	-0.1058
0.1305	-0.1628	-0.1145
0.1352	-0.1581	-0.1142
0.1351	-0.1503	-0.1186
0.1377	-0.1444	-0.1221
0.1390	-0.1450	-0.1268
0.1352	-0.1420	-0.1295
0.1357	-0.1409	-0.1346
0.1310	-0.1324	-0.1467
0.1276	-0.1344	-0.1498
0.1331	-0.1359	-0.1490
0.1411	-0.1367	-0.1480
0.1326	-0.1359	-0.1549
0.1271	-0.1386	-0.1567
0.1196	-0.1299	-0.1581
0.1096	-0.2119	-0.1940
0.1051	-0.2121	-0.1970
0.1153	-0.2279	-0.1963
0.1157	-0.2495	-0.1980
0.1140	-0.2566	-0.1954
0.1102	-0.2543	-0.1913
0.1117	-0.2528	-0.1864
0.1089	-0.2481	-0.1846
0.1044	-0.2393	-0.1773
0.1093	-0.2413	-0.1719
0.1108	-0.2374	-0.1687
0.1143	-0.2288	-0.1697
0.1113	-0.2277	-0.1663
0.1082	-0.2260	-0.1601
0.1088	-0.2219	-0.1572
0.1011	-0.2236	-0.1533
0.0928	-0.2116	-0.1375
0.0919	-0.2046	-0.1322
0.0879	-0.2147	-0.1418
0.0821	-0.2168	-0.1426
0.0841	-0.2088	-0.1312
0.0867	-0.2041	-0.1325
0.0800	-0.2020	-0.1284
0.0714	-0.2006	-0.1358
0.0613	-0.1898	-0.1350
0.0557	-0.1942	-0.1380
0.0564	-0.1898	-0.1385
0.0585	-0.1839	-0.1328
0.0497	-0.1841	-0.1401
0.0509	-0.1837	-0.1405
0.0441	-0.1793	-0.1447
0.0576	-0.1857	-0.1440
0.0489	-0.1799	-0.1528
0.0473	-0.1729	-0.1569
0.0489	-0.1729	-0.1647
0.0483	-0.1679	-0.1656
0.0490	-0.1622	-0.1654
0.0475	-0.1535	-0.1511
0.0398	-0.1607	-0.1573
0.0383	-0.1572	-0.1586
0.0519	-0.1352	-0.1631
0.0520	-0.1284	-0.1736
0.0560	-0.1269	-0.1785
0.0618	-0.1372	-0.1749
0.0583	-0.1360	-0.1704
0.0645	-0.1114	-0.1625
0.0723	-0.1138	-0.1595
0.0685	-0.1199	-0.1581
0.0703	-0.1221	-0.1619
0.0978	-0.1220	-0.1470
0.0931	-0.1303	-0.1515
0.1002	-0.1302	-0.1586
0.1058	-0.1292	-0.1596
0.1066	-0.1259	-0.1637
0.1059	-0.1255	-0.1697
0.0762	-0.1388	-0.2042
0.0686	-0.1408	-0.2094
0.0785	-0.1470	-0.1929
0.0574	-0.1511	-0.1862
0.0561	-0.1539	-0.1811
0.0504	-0.1499	-0.1687
0.0465	-0.1492	-0.1668
0.0453	-0.1507	-0.1649
0.0534	-0.1506	-0.1667
0.0521	-0.1462	-0.1767
0.0596	-0.1480	-0.1755
0.0614	-0.1522	-0.1819
0.0600	-0.1567	-0.1895
0.0631	-0.1539	-0.1951
0.0717	-0.1521	-0.1962
0.0726	-0.1369	-0.1987
0.0696	-0.1463	-0.1966
0.0730	-0.1453	-0.1950
0.0746	-0.1438	-0.2028
0.0746	-0.1455	-0.2120
0.0824	-0.1473	-0.2117
0.0784	-0.1474	-0.2176
0.0869	-0.1478	-0.2235
0.0868	-0.1453	-0.2289
0.0883	-0.1428	-0.2332
0.0890	-0.1430	-0.2348
0.0913	-0.1458	-0.2341
0.0922	-0.1468	-0.2381
0.1007	-0.1456	-0.2483
0.1115	-0.1390	-0.2556
0.1132	-0.1388	-0.2607
0.1204	-0.1405	-0.2608
0.1231	-0.1422	-0.2618
0.1324	-0.1443	-0.2596
0.1144	-0.1408	-0.2615
0.1079	-0.1354	-0.2628
0.1045	-0.1422	-0.2634
0.1118	-0.1470	-0.2563
0.1111	-0.1669	-0.2523
0.0927	-0.2062	-0.2347
0.0935	-0.2034	-0.2312
0.0950	-0.2034	-0.2297
0.0905	-0.2066	-0.2299
0.0969	-0.2000	-0.2295
0.0891	-0.1983	-0.2368
0.0858	-0.2053	-0.2379
0.0836	-0.1948	-0.2303
0.0900	-0.2009	-0.2276
0.0960	-0.2079	-0.2226
0.0891	-0.2217	-0.2239
0.1070	-0.2281	-0.2065
0.1102	-0.2153	-0.2019
0.1060	-0.2161	-0.1936
0.1011	-0.2201	-0.1920
0.1011	-0.2145	-0.1900
0.0929	-0.2125	-0.1920
0.0748	-0.2038	-0.2035
0.0677	-0.1842	-0.2148
0.0701	-0.1722	-0.2173
0.0661	-0.1638	-0.2230
0.0663	-0.1590	-0.2195
0.0516	-0.1601	-0.2025
0.0631	-0.1789	-0.1868
0.0694	-0.1787	-0.1871
0.0703	-0.1809	-0.1935
0.0847	-0.1913	-0.1991
0.1028	-0.2059	-0.2018
0.1134	-0.2125	-0.2070
0.1104	-0.2136	-0.2134
0.1112	-0.2152	-0.2186
0.1165	-0.2140	-0.2316
0.1145	-0.2119	-0.2426
0.1196	-0.2063	-0.2481
0.1172	-0.2069	-0.2551
0.1275	-0.2044	-0.2613
0.1216	-0.2057	-0.2691
0.1276	-0.2074	-0.2707
0.1298	-0.1994	-0.2740
0.1305	-0.1909	-0.2745
0.1284	-0.1706	-0.2824
0.1284	-0.1629	-0.2829
0.1389	-0.1480	-0.2874
0.1420	-0.1498	-0.2893
0.1381	-0.1324	-0.2956
0.1294	-0.1372	-0.2887
0.1357	-0.1433	-0.2894
0.1283	-0.1532	-0.2949
0.1297	-0.1574	-0.2919
0.1260	-0.1656	-0.2922
0.1301	-0.1699	-0.2879
0.1383	-0.1750	-0.2809
0.1370	-0.1825	-0.2851
0.1312	-0.1894	-0.2880
