0.0338	-0.0760	-0.0097
0.0348	-0.0937	-0.0152
0.0383	-0.1008	-0.0157
0.0366	-0.0988	-0.0177
0.0378	-0.1022	-0.0215
0.0326	-0.0695	-0.0353
0.0365	-0.0965	-0.0451
0.0326	-0.0863	-0.0434
0.0297	-0.0769	-0.0452
0.0365	-0.0801	-0.0467
0.0380	-0.0850	-0.0458
0.0418	-0.0873	-0.0459
0.0446	-0.0830	-0.0481
0.0383	-0.0891	-0.0555
0.0426	-0.0980	-0.0590
0.0447	-0.1003	-0.0608
0.0390	-0.0954	-0.0648
0.0422	-0.1005	-0.0652
0.0410	-0.0979	-0.0706
0.0488	-0.1102	-0.0707
0.0518	-0.1146	-0.0739
0.0553	-0.1213	-0.0763
0.0605	-0.1238	-0.0748
0.0628	-0.1334	-0.0842
0.0668	-0.1473	-0.0911
0.0650	-0.1385	-0.0901
0.0710	-0.1495	-0.0949
0.0717	-0.1422	-0.1038
0.0712	-0.1461	-0.1011
0.0705	-0.1480	-0.1058
0.0737	-0.1565	-0.1063
0.0723	-0.1537	-0.1105
0.0716	-0.1545	-0.1125
0.0725	-0.1609	-0.1106
0.0727	-0.1429	-0.1091
0.0796	-0.1516	-0.1227
0.0849	-0.1562	-0.1242
0.0885	-0.1606	-0.1263
0.0890	-0.1576	-0.1292
0.0852	-0.1566	-0.1320
0.0851	-0.1630	-0.1331
0.0852	-0.1652	-0.1378
0.0858	-0.1658	-0.1367
0.0831	-0.1620	-0.1405
0.0823	-0.1615	-0.1390
0.0847	-0.1633	-0.1400
0.0976	-0.1760	-0.1612
0.0922	-0.1685	-0.1584
0.0927	-0.1620	-0.1556
0.0925	-0.1588	-0.1613
0.0935	-0.1668	-0.1645
0.0980	-0.1548	-0.1641
0.1056	-0.1683	-0.1738
0.1058	-0.1670	-0.1799
0.1090	-0.1683	-0.1797
0.1100	-0.1632	-0.1898
0.1259	-0.1618	-0.1865
0.1339	-0.1536	-0.1796
0.1310	-0.1711	-0.1847
0.1268	-0.1785	-0.1846
0.1208	-0.1794	-0.1846
0.1311	-0.1785	-0.1801
0.1344	-0.1743	-0.1772
0.1386	-0.1712	-0.1721
0.1448	-0.1639	-0.1637
0.1374	-0.1557	-0.1496
0.1384	-0.1566	-0.1351
0.1359	-0.1492	-0.1351
0.1352	-0.1452	-0.1283
0.1285	-0.1416	-0.1308
0.1266	-0.1448	-0.1264
0.1212	-0.1469	-0.1135
0.1120	-0.1394	-0.1126
0.1039	-0.1352	-0.1119
0.1008	-0.1289	-0.1073
0.0889	-0.1315	-0.1067
0.0825	-0.1303	-0.1048
0.0828	-0.1308	-0.1011
0.0814	-0.1296	-0.1007
0.0842	-0.1291	-0.0971
0.0845	-0.1291	-0.0977
0.0930	-0.1311	-0.0927
0.0949	-0.1277	-0.0952
0.0956	-0.1239	-0.0959
0.0969	-0.1243	-0.0932
0.1008	-0.1146	-0.0907
0.1025	-0.1103	-0.0897
0.1037	-0.1093	-0.0834
0.1085	-0.1072	-0.0853
0.1113	-0.1061	-0.0890
0.1121	-0.1066	-0.0828
0.1015	-0.1058	-0.0705
0.0969	-0.1044	-0.0703
0.0971	-0.1080	-0.0688
0.1008	-0.1044	-0.0657
0.0949	-0.1036	-0.0601
0.0940	-0.1094	-0.0585
0.0897	-0.1083	-0.0608
0.0883	-0.1137	-0.0580
0.0823	-0.1153	-0.0589
0.0666	-0.1078	-0.0568
0.0599	-0.1053	-0.0573
0.0520	-0.1003	-0.0557
0.0587	-0.1015	-0.0480
0.0606	-0.1023	-0.0500
0.0651	-0.1020	-0.0488
0.0775	-0.1040	-0.0453
0.0818	-0.1028	-0.0448
0.0837	-0.0999	-0.0426
0.0872	-0.0963	-0.0414
0.0939	-0.0877	-0.0398
0.1062	-0.0787	-0.0301
0.1044	-0.0789	-0.0314
0.1030	-0.0746	-0.0353
0.1022	-0.0661	-0.0317
0.1021	-0.0660	-0.0323
0.0984	-0.0565	-0.0298
0.1004	-0.0523	-0.0236
0.1002	-0.0560	-0.0198
0.0981	-0.0624	-0.0187
0.0992	-0.0646	-0.0138
0.0879	-0.0685	-0.0134
0.0859	-0.0641	-0.0101
0.0803	-0.0668	0.0020
0.0695	-0.0704	-0.0015
0.0678	-0.0628	0.0038
0.0707	-0.0560	0.0095
0.0723	-0.0587	0.0094
0.0699	-0.0505	0.0244
0.0676	-0.0498	0.0183
0.0653	-0.0485	0.0238
0.0675	-0.0459	0.0238
0.0671	-0.0387	0.0269
0.0702	-0.0328	0.0243
0.0718	-0.0245	0.0275
0.0711	-0.0253	0.0280
0.0625	-0.0144	0.0329
0.0658	-0.0144	0.0317
0.0684	-0.0118	0.0233
0.0834	-0.0260	0.0079
0.0872	-0.0251	-0.0000
0.0874	-0.0316	-0.0046
0.0935	-0.0331	-0.0024
0.0946	-0.0442	-0.0020
0.0935	-0.0426	-0.0179
0.0980	-0.0421	-0.0240
0.0986	-0.0459	-0.0269
0.0992	-0.0489	-0.0342
0.0991	-0.0515	-0.0374
0.1009	-0.0575	-0.0433
0.1038	-0.0674	-0.0503
0.1011	-0.0702	-0.0553
0.1023	-0.0658	-0.0573
0.1009	-0.0510	-0.0573
0.1020	-0.0588	-0.0567
0.0967	-0.0642	-0.0538
0.0995	-0.0614	-0.0587
0.1027	-0.0627	-0.0554
0.1008	-0.0621	-0.0571
0.1030	-0.0635	-0.0568
0.1017	-0.0577	-0.0593
0.1383	-0.1399	-0.1278
0.1337	-0.1397	-0.1176
0.1463	-0.1503	-0.1252
0.1296	-0.1416	-0.1206
0.1389	-0.1642	-0.1373
0.1290	-0.1608	-0.1471
0.1400	-0.1578	-0.1454
0.1380	-0.1485	-0.1490
0.1369	-0.1520	-0.1517
0.1377	-0.1462	-0.1551
0.1435	-0.1425	-0.1674
0.1411	-0.1455	-0.1676
0.1394	-0.1329	-0.1734
0.1368	-0.1275	-0.1691
0.1239	-0.1199	-0.1651
0.1104	-0.0925	-0.1616
0.1229	-0.0971	-0.1475
0.1100	-0.0857	-0.1571
0.0989	-0.0769	-0.1586
0.0936	-0.0816	-0.1566
0.0924	-0.0700	-0.1554
0.1025	-0.0765	-0.1555
0.1016	-0.0854	-0.1542
0.1036	-0.0857	-0.1415
0.1060	-0.0866	-0.1390
0.1110	-0.0870	-0.1356
0.1097	-0.0895	-0.1350
0.1140	-0.0962	-0.1370
0.1171	-0.1094	-0.1137
0.1158	-0.1099	-0.1073
0.1171	-0.1067	-0.1036
0.1122	-0.1069	-0.0997
0.1157	-0.0963	-0.0962
0.1121	-0.0936	-0.0994
0.1131	-0.0928	-0.0989
0.1100	-0.0845	-0.1163
0.0997	-0.0717	-0.1183
0.0983	-0.0645	-0.1212
0.0934	-0.0636	-0.1184
0.0888	-0.0574	-0.1155
0.0609	-0.0445	-0.1135
0.0694	-0.0428	-0.1131
0.0660	-0.0368	-0.1110
0.0688	-0.0398	-0.1100
0.0726	-0.0373	-0.1031
0.0831	-0.0372	-0.0961
0.0873	-0.0367	-0.0933
0.0920	-0.0481	-0.0837
0.0906	-0.0486	-0.0827
0.0879	-0.0361	-0.0736
0.0838	-0.0452	-0.0699
0.0900	-0.0448	-0.0649
0.0875	-0.0466	-0.0642
0.0860	-0.0482	-0.0591
0.0870	-0.0538	-0.0563
0.0837	-0.0451	-0.0573
0.0865	-0.0462	-0.0544
0.0794	-0.0465	-0.0735
0.0845	-0.0416	-0.0810
0.0815	-0.0375	-0.0839
0.0781	-0.0429	-0.0898
0.0697	-0.0475	-0.0921
0.0735	-0.0545	-0.0930
0.0722	-0.0174	-0.0984
0.0698	-0.0129	-0.1019
0.0696	-0.0203	-0.1007
0.0595	-0.0231	-0.1052
0.0521	-0.0225	-0.1055
0.0609	-0.0216	-0.1047
0.0670	-0.0203	-0.1022
0.0639	-0.0169	-0.1004
0.0849	0.0025	-0.0951
0.0886	0.0014	-0.0806
0.0910	-0.0111	-0.0623
0.0825	-0.0131	-0.0564
0.0866	-0.0218	-0.0523
0.0834	-0.0275	-0.0462
0.0906	-0.0230	-0.0440
0.0792	-0.0148	-0.0340
0.0805	0.0048	-0.0300
0.0312	-0.1105	-0.0373
0.0343	-0.1123	-0.0364
0.0314	-0.1097	-0.0408
0.0284	-0.1067	-0.0429
0.0336	-0.1128	-0.0371
0.0189	-0.1152	-0.0410
0.0115	-0.1247	-0.0463
0.0110	-0.1253	-0.0416
-0.0001	-0.1204	-0.0480
-0.0009	-0.1150	-0.0441
-0.0058	-0.1098	-0.0443
-0.0033	-0.1058	-0.0433
-0.0131	-0.0968	-0.0465
-0.0117	-0.0948	-0.0408
-0.0185	-0.0838	-0.0462
-0.0151	-0.0838	-0.0400
-0.0158	-0.0887	-0.0381
-0.0231	-0.0945	-0.0339
-0.0198	-0.0926	-0.0294
-0.0181	-0.0842	-0.0414
-0.0197	-0.0718	-0.0549
0.0011	-0.0507	-0.0728
-0.0015	-0.0562	-0.0706
-0.0021	-0.0589	-0.0757
0.0022	-0.0534	-0.0798
-0.0041	-0.0564	-0.0827
-0.0015	-0.0507	-0.0885
0.0061	-0.0493	-0.0884
0.0028	-0.0532	-0.0910
0.0044	-0.0558	-0.0950
-0.0005	-0.0550	-0.0989
0.0014	-0.0591	-0.1010
0.0081	-0.0587	-0.1015
0.0107	-0.0569	-0.1094
0.0177	-0.0524	-0.1099
0.0249	-0.0544	-0.1097
0.0231	-0.0557	-0.1151
0.0286	-0.0569	-0.1117
0.0341	-0.0544	-0.1150
0.0345	-0.0493	-0.1225
0.0367	-0.0490	-0.1223
0.0314	-0.0473	-0.1305
0.0262	-0.0407	-0.1287
0.0228	-0.0329	-0.1300
0.0117	-0.0475	-0.1272
0.0095	-0.0594	-0.1263
0.0066	-0.0514	-0.1275
0.0028	-0.0570	-0.1260
0.0071	-0.0548	-0.1186
0.0015	-0.0577	-0.1177
0.0089	-0.0641	-0.1088
0.0078	-0.0726	-0.1001
0.0073	-0.0761	-0.0988
0.0036	-0.0783	-0.0963
0.0109	-0.0862	-0.0876
0.0100	-0.0979	-0.0916
0.0085	-0.0984	-0.0954
0.0175	-0.1031	-0.0885
0.0239	-0.1049	-0.0809
0.0239	-0.1154	-0.0854
0.0264	-0.1186	-0.0840
0.0223	-0.1218	-0.0882
0.0328	-0.1197	-0.0959
0.0264	-0.1123	-0.0928
0.0356	-0.1087	-0.0964
0.0365	-0.1213	-0.1079
0.0318	-0.1350	-0.1107
0.0303	-0.1381	-0.1142
0.0243	-0.1393	-0.1217
0.0242	-0.1290	-0.1278
0.0236	-0.1221	-0.1239
0.0190	-0.1150	-0.1262
0.0156	-0.1067	-0.1287
0.0179	-0.1052	-0.1401
0.0280	-0.0867	-0.1453
0.0202	-0.0892	-0.1504
0.0207	-0.0909	-0.1546
0.0298	-0.0909	-0.1540
0.0243	-0.1019	-0.1604
0.0276	-0.1078	-0.1588
0.0323	-0.1122	-0.1485
0.0299	-0.1203	-0.1462
0.0379	-0.1313	-0.1409
0.0388	-0.1379	-0.1250
0.0482	-0.1392	-0.1178
0.0416	-0.1471	-0.1197
0.0518	-0.1491	-0.1182
0.0533	-0.1453	-0.1215
0.0500	-0.1473	-0.1248
0.0495	-0.1479	-0.1301
0.0499	-0.1510	-0.1343
0.0758	-0.1611	-0.1247
0.0688	-0.1647	-0.1280
0.0631	-0.1637	-0.1337
0.0701	-0.1627	-0.1379
0.0705	-0.1705	-0.1434
0.0695	-0.1790	-0.1468
0.0629	-0.1809	-0.1543
0.0452	-0.1629	-0.1742
0.0428	-0.1579	-0.1743
0.0409	-0.1387	-0.1781
0.0388	-0.1428	-0.1746
0.0336	-0.1303	-0.1771
0.0369	-0.1363	-0.1766
0.0430	-0.1172	-0.1755
0.0411	-0.0972	-0.1687
0.0311	-0.1011	-0.1717
0.0284	-0.0970	-0.1704
0.0209	-0.1064	-0.1716
0.0187	-0.1155	-0.1665
0.0224	-0.1296	-0.1631
0.0259	-0.1374	-0.1654
0.0285	-0.1397	-0.1675
0.0310	-0.1491	-0.1715
0.0330	-0.1535	-0.1753
0.0448	-0.1769	-0.1712
0.0548	-0.1841	-0.1645
0.0729	-0.2217	-0.1477
0.0810	-0.2185	-0.1476
0.0770	-0.2191	-0.1507
0.0849	-0.2186	-0.1544
0.0848	-0.2076	-0.1623
0.0855	-0.2046	-0.1727
0.0895	-0.2062	-0.1753
0.0861	-0.2097	-0.1773
0.0932	-0.2090	-0.1790
0.0955	-0.2071	-0.1849
0.0868	-0.2070	-0.1858
0.0745	-0.2266	-0.1910
0.0632	-0.2211	-0.1952
0.0620	-0.2158	-0.1965
0.0623	-0.2137	-0.1970
0.0508	-0.1850	-0.1778
0.0541	-0.1931	-0.1773
0.0491	-0.2002	-0.1781
0.0469	-0.1930	-0.1820
0.0480	-0.1725	-0.1837
0.0528	-0.1646	-0.1871
0.0491	-0.1721	-0.1923
0.0546	-0.1713	-0.1938
0.0534	-0.1703	-0.1974
0.0548	-0.1789	-0.1905
0.0694	-0.1956	-0.2052
0.0698	-0.1990	-0.2067
0.0699	-0.1941	-0.2095
0.0729	-0.1907	-0.2084
0.0703	-0.1988	-0.2106
0.0790	-0.2074	-0.2070
0.0876	-0.2242	-0.1994
0.0828	-0.2309	-0.1982
0.0922	-0.2180	-0.1983
0.0970	-0.2061	-0.1931
0.0466	-0.0970	-0.1052
0.0427	-0.0963	-0.1031
0.0456	-0.1009	-0.1056
0.0464	-0.0935	-0.0997
0.0483	-0.0991	-0.1039
0.0498	-0.0863	-0.1031
0.0432	-0.0766	-0.1045
0.0436	-0.0778	-0.0994
0.0449	-0.0803	-0.0997
0.0426	-0.0815	-0.0989
0.0428	-0.0790	-0.1010
0.0428	-0.0722	-0.1007
0.0436	-0.0633	-0.1020
0.0475	-0.0588	-0.1014
0.0467	-0.0572	-0.1024
0.0536	-0.0589	-0.1027
0.0577	-0.0597	-0.0971
0.0575	-0.0663	-0.1047
0.0665	-0.0513	-0.1015
0.0708	-0.0447	-0.1028
0.0737	-0.0622	-0.1141
0.0775	-0.0619	-0.1085
0.0517	-0.0861	-0.1273
0.0490	-0.0864	-0.1294
0.0477	-0.0984	-0.1309
0.0448	-0.1072	-0.1370
0.0474	-0.1103	-0.1261
0.0452	-0.1164	-0.1266
0.0375	-0.1243	-0.1302
0.0349	-0.1289	-0.1318
0.0324	-0.1402	-0.1290
0.0329	-0.1436	-0.1352
0.0355	-0.1390	-0.1282
0.0323	-0.1368	-0.1344
0.0362	-0.1371	-0.1329
0.0384	-0.1358	-0.1404
0.0508	-0.1247	-0.1320
0.0855	-0.1139	-0.1228
0.0818	-0.1083	-0.1262
0.0759	-0.1036	-0.1308
0.0829	-0.0951	-0.1224
0.0870	-0.1019	-0.1400
0.0823	-0.1232	-0.1487
0.0830	-0.1265	-0.1407
0.0778	-0.1243	-0.1508
0.0707	-0.1313	-0.1554
0.0667	-0.1358	-0.1584
0.0687	-0.1391	-0.1552
0.0672	-0.1453	-0.1620
0.0692	-0.1490	-0.1593
0.0664	-0.1461	-0.1651
0.0654	-0.1417	-0.1671
0.0643	-0.1515	-0.1731
0.0660	-0.1650	-0.1796
0.0683	-0.1696	-0.1795
0.0839	-0.1397	-0.1670
0.0871	-0.1396	-0.1620
0.1023	-0.1294	-0.1438
0.1075	-0.1284	-0.1447
0.1122	-0.1343	-0.1483
0.1098	-0.1345	-0.1531
0.1052	-0.1415	-0.1578
0.1042	-0.1473	-0.1610
0.0961	-0.1494	-0.1757
0.0936	-0.1519	-0.1850
0.0857	-0.1541	-0.2060
0.0840	-0.1597	-0.2135
0.0916	-0.1513	-0.2059
0.0831	-0.1508	-0.2268
0.0928	-0.1612	-0.2272
0.0951	-0.1624	-0.2275
0.0964	-0.1624	-0.2266
0.0954	-0.1638	-0.2270
0.0910	-0.1725	-0.2297
0.0908	-0.1741	-0.2355
0.0909	-0.1772	-0.2331
0.0941	-0.1770	-0.2248
0.0828	-0.1804	-0.2273
0.0837	-0.1812	-0.2045
0.0801	-0.1834	-0.2051
