0.1081	-0.7209	-0.1685
0.1151	-0.7143	-0.1685
0.1147	-0.7195	-0.1655
0.1125	-0.7209	-0.1677
0.1161	-0.7255	-0.1639
0.1156	-0.7070	-0.1598
0.1171	-0.7075	-0.1591
0.1145	-0.7179	-0.1638
0.1144	-0.7103	-0.1631
0.1060	-0.6849	-0.1570
0.1152	-0.7292	-0.1789
0.1163	-0.7158	-0.1843
0.1289	-0.7104	-0.1869
0.1645	-0.7267	-0.1987
0.1630	-0.7217	-0.2081
0.1562	-0.7196	-0.1845
0.1655	-0.7179	-0.1582
0.1718	-0.7231	-0.1533
0.1739	-0.7256	-0.1518
0.1754	-0.7237	-0.1472
0.1682	-0.7212	-0.1371
0.1620	-0.7165	-0.1417
0.1546	-0.7122	-0.1422
0.1530	-0.7149	-0.1426
0.1527	-0.7120	-0.1391
0.1521	-0.7057	-0.1440
0.1592	-0.7052	-0.1347
0.1654	-0.6978	-0.1316
0.1717	-0.7061	-0.1332
0.1758	-0.7026	-0.1247
0.1779	-0.7002	-0.1290
0.1797	-0.6895	-0.1236
0.1855	-0.6883	-0.1162
0.1848	-0.6957	-0.1250
0.1899	-0.6958	-0.1250
0.2031	-0.6903	-0.1219
0.2032	-0.6794	-0.1294
0.2054	-0.6915	-0.1246
0.2110	-0.6991	-0.1155
0.2126	-0.7008	-0.1211
0.2127	-0.6970	-0.1177
0.2162	-0.6975	-0.1135
0.2263	-0.7037	-0.1104
0.2314	-0.7026	-0.1086
0.2352	-0.7016	-0.1039
0.2429	-0.7000	-0.1047
0.2486	-0.7021	-0.1002
0.2613	-0.7042	-0.1157
0.2645	-0.7087	-0.1198
0.2693	-0.7131	-0.1263
0.2691	-0.7094	-0.1205
0.2744	-0.6991	-0.1228
0.2766	-0.7011	-0.1186
0.2749	-0.7060	-0.1211
0.2764	-0.7084	-0.1295
0.2757	-0.7048	-0.1347
0.2798	-0.7053	-0.1338
0.2798	-0.6995	-0.1408
0.2864	-0.6856	-0.1425
0.2892	-0.6882	-0.1530
0.2923	-0.6888	-0.1599
0.2939	-0.6893	-0.1574
0.2957	-0.6850	-0.1645
0.3024	-0.6882	-0.1693
0.3031	-0.6834	-0.1782
0.3047	-0.6804	-0.1798
0.2852	-0.6806	-0.1708
0.2821	-0.6925	-0.1514
0.2810	-0.6972	-0.1576
0.2800	-0.6890	-0.1513
0.2685	-0.6916	-0.1580
0.2675	-0.7032	-0.1253
0.2672	-0.6954	-0.1307
0.2476	-0.6956	-0.1165
0.2459	-0.7021	-0.1114
0.2446	-0.7075	-0.1078
0.2433	-0.7068	-0.1094
0.2405	-0.7160	-0.1065
0.2373	-0.7166	-0.1119
0.2282	-0.7109	-0.1158
0.2210	-0.7082	-0.1260
0.2125	-0.7134	-0.1320
0.2054	-0.7137	-0.1395
0.2007	-0.7129	-0.1471
0.1956	-0.7166	-0.1551
0.1939	-0.7197	-0.1497
0.2166	-0.7008	-0.1511
0.2482	-0.7110	-0.1355
0.2535	-0.7121	-0.1429
0.2575	-0.7107	-0.1386
0.1691	-0.7245	-0.1994
0.2425	-0.7562	-0.2361
0.2100	-0.7556	-0.2414
0.2073	-0.7684	-0.2359
0.1733	-0.7578	-0.2416
0.1706	-0.7587	-0.2495
0.1761	-0.7476	-0.2574
0.2084	-0.7444	-0.2621
0.1953	-0.7422	-0.2670
0.1932	-0.7377	-0.2711
0.2003	-0.7460	-0.2738
0.2031	-0.7492	-0.2719
0.2051	-0.7291	-0.2771
0.2167	-0.7213	-0.2806
0.2205	-0.7270	-0.2923
0.2094	-0.7292	-0.2906
0.2172	-0.7253	-0.2972
0.2210	-0.7261	-0.2961
0.2149	-0.7263	-0.2903
0.2201	-0.7430	-0.2851
0.2287	-0.7516	-0.2821
0.2383	-0.7389	-0.2837
0.2395	-0.7211	-0.2769
0.2481	-0.7236	-0.2760
0.2527	-0.7237	-0.2750
0.2492	-0.7227	-0.2769
0.2454	-0.7262	-0.2710
0.2524	-0.7464	-0.2597
0.2501	-0.7369	-0.2600
0.2547	-0.7371	-0.2554
0.2499	-0.7361	-0.2526
0.2436	-0.7390	-0.2462
0.2462	-0.7527	-0.2389
0.2373	-0.7681	-0.2158
0.2347	-0.7503	-0.2119
0.2434	-0.7465	-0.2156
0.2471	-0.7488	-0.2135
0.2684	-0.7199	-0.2642
0.2774	-0.7183	-0.2656
0.2714	-0.7136	-0.2645
0.2908	-0.7122	-0.2551
0.2975	-0.7115	-0.2515
0.2935	-0.7128	-0.2463
0.3013	-0.7137	-0.2494
0.2970	-0.7067	-0.2486
0.3016	-0.7097	-0.2446
0.3009	-0.7049	-0.2483
0.2991	-0.6993	-0.2445
0.3037	-0.6995	-0.2452
0.3140	-0.7157	-0.2452
0.3197	-0.7225	-0.2431
0.3256	-0.7263	-0.2372
0.3247	-0.7279	-0.2366
0.3235	-0.7244	-0.2333
0.3225	-0.7305	-0.2333
0.3217	-0.7361	-0.2260
0.2804	-0.7368	-0.2233
0.2799	-0.7518	-0.2210
0.2767	-0.7641	-0.2111
0.2763	-0.7635	-0.2137
0.2674	-0.7612	-0.2155
0.3092	-0.7422	-0.2031
0.3032	-0.7332	-0.2018
0.3070	-0.7304	-0.2031
0.3114	-0.7293	-0.2027
0.3214	-0.7168	-0.1989
0.3197	-0.7086	-0.2018
0.3182	-0.7025	-0.2015
0.3245	-0.6980	-0.2041
0.3294	-0.7090	-0.2204
0.3277	-0.6982	-0.2293
0.3245	-0.6941	-0.2310
0.3258	-0.6945	-0.2354
0.3255	-0.7019	-0.2309
0.3292	-0.6987	-0.2318
0.3226	-0.7106	-0.2277
0.3197	-0.7103	-0.2164
0.3166	-0.7051	-0.2080
0.3070	-0.7104	-0.1985
0.3068	-0.7118	-0.1891
0.3028	-0.7197	-0.1760
0.3023	-0.7195	-0.1723
0.2992	-0.7160	-0.1701
0.2871	-0.7212	-0.1675
0.2918	-0.7226	-0.1625
0.2870	-0.7268	-0.1558
0.2805	-0.7384	-0.1467
0.2824	-0.7332	-0.1370
0.2719	-0.7277	-0.1316
0.2730	-0.7200	-0.1311
0.2667	-0.7182	-0.1277
0.2620	-0.7180	-0.1230
0.2638	-0.7208	-0.1195
0.2595	-0.7159	-0.1163
0.2656	-0.7171	-0.1120
0.2651	-0.7217	-0.1131
0.2643	-0.7264	-0.1167
0.2721	-0.7417	-0.1248
0.2879	-0.7428	-0.1819
0.0902	-0.7431	-0.2557
0.0712	-0.7476	-0.2444
0.0750	-0.7302	-0.2260
0.0694	-0.7149	-0.2036
0.0709	-0.7207	-0.2130
0.0703	-0.7255	-0.2110
0.0611	-0.7268	-0.2086
0.0647	-0.7176	-0.2036
0.0688	-0.7162	-0.2073
0.0655	-0.7143	-0.2020
0.0618	-0.7120	-0.2024
0.0570	-0.7103	-0.1990
0.0576	-0.7051	-0.1984
0.0540	-0.7079	-0.1962
0.0515	-0.7054	-0.1898
0.0513	-0.7022	-0.1880
0.0488	-0.7019	-0.1897
0.0523	-0.7066	-0.1940
0.0458	-0.7040	-0.1950
0.0415	-0.7116	-0.1994
0.0388	-0.7150	-0.2010
0.0412	-0.7103	-0.2049
0.0419	-0.7139	-0.2016
0.0372	-0.7127	-0.2033
0.0358	-0.7012	-0.1964
0.0346	-0.6990	-0.1973
0.0334	-0.7052	-0.2020
0.0326	-0.7070	-0.2048
0.0238	-0.7129	-0.2050
0.0198	-0.7142	-0.2077
0.0205	-0.7281	-0.2253
0.0172	-0.7013	-0.2131
0.0109	-0.7059	-0.2165
0.0055	-0.7072	-0.2211
0.0041	-0.6939	-0.2266
0.0043	-0.7084	-0.2300
0.0078	-0.7131	-0.2337
0.0251	-0.7225	-0.2454
0.0306	-0.7268	-0.2546
0.0298	-0.7214	-0.2540
0.0352	-0.7250	-0.2603
0.0391	-0.7209	-0.2617
0.0200	-0.7356	-0.2779
0.0171	-0.7327	-0.2728
0.0072	-0.7359	-0.2527
-0.0002	-0.7325	-0.2476
-0.0023	-0.7272	-0.2476
-0.0051	-0.7210	-0.2451
-0.0104	-0.7233	-0.2425
-0.0065	-0.7183	-0.2422
-0.0130	-0.7143	-0.2423
-0.0160	-0.7186	-0.2413
-0.0156	-0.7164	-0.2459
-0.0229	-0.7123	-0.2450
-0.0238	-0.7081	-0.2460
-0.0243	-0.7042	-0.2464
-0.0246	-0.6989	-0.2424
-0.0271	-0.7017	-0.2447
-0.0255	-0.7053	-0.2463
-0.0336	-0.7060	-0.2466
-0.0291	-0.7265	-0.2667
-0.0121	-0.7320	-0.2878
-0.0114	-0.7377	-0.3066
-0.0057	-0.7327	-0.3124
-0.0392	-0.7338	-0.2655
-0.0405	-0.7295	-0.2653
-0.0476	-0.7278	-0.2593
-0.0376	-0.7174	-0.2651
-0.0447	-0.7185	-0.2634
-0.0406	-0.7283	-0.2653
-0.0352	-0.7210	-0.2675
-0.0382	-0.7237	-0.2654
-0.0412	-0.7252	-0.2653
-0.0409	-0.7283	-0.2602
-0.0333	-0.7282	-0.2630
-0.0268	-0.7288	-0.2647
-0.0279	-0.7354	-0.2573
-0.0239	-0.7359	-0.2554
-0.0171	-0.7307	-0.2597
-0.0221	-0.7331	-0.2560
0.0741	-0.7206	-0.2543
0.0785	-0.7310	-0.2540
0.0665	-0.7344	-0.2237
0.0771	-0.7308	-0.2172
0.0824	-0.7324	-0.2209
0.0834	-0.7356	-0.2123
0.0821	-0.7333	-0.2129
0.0765	-0.7407	-0.2100
0.0740	-0.7400	-0.2069
0.0677	-0.7096	-0.2022
0.0593	-0.7115	-0.1970
0.0595	-0.6963	-0.1944
0.0591	-0.6868	-0.1922
0.0537	-0.6902	-0.1933
0.0446	-0.6950	-0.2006
0.0406	-0.7107	-0.2056
0.0394	-0.7045	-0.2173
0.0468	-0.7525	-0.2660
0.0533	-0.7408	-0.2578
0.0486	-0.7400	-0.2537
0.0226	-0.7342	-0.2397
0.0134	-0.7249	-0.2308
0.0140	-0.7236	-0.2336
0.0114	-0.7256	-0.2362
0.0071	-0.7336	-0.2354
0.0039	-0.7277	-0.2254
0.0063	-0.7166	-0.2296
0.0035	-0.7111	-0.2255
0.0068	-0.7064	-0.2199
0.0049	-0.7084	-0.2261
0.0019	-0.7068	-0.2263
-0.0001	-0.7120	-0.2243
-0.0017	-0.7153	-0.2303
-0.0069	-0.7212	-0.2367
-0.0092	-0.7279	-0.2389
-0.0105	-0.7233	-0.2367
-0.0192	-0.7267	-0.2424
-0.0129	-0.7303	-0.2475
-0.0168	-0.7332	-0.2492
-0.0018	-0.7320	-0.2606
-0.0063	-0.7373	-0.2612
-0.0065	-0.7396	-0.2623
0.0009	-0.7265	-0.2806
-0.0281	-0.7115	-0.2473
-0.0277	-0.7047	-0.2476
-0.0296	-0.7062	-0.2469
-0.0289	-0.7064	-0.2511
-0.0319	-0.6997	-0.2476
-0.0367	-0.6979	-0.2493
-0.0344	-0.6974	-0.2493
-0.0414	-0.6954	-0.2482
-0.0366	-0.6938	-0.2513
-0.0395	-0.6978	-0.2520
-0.0344	-0.7030	-0.2559
-0.0369	-0.7175	-0.2611
-0.0343	-0.7239	-0.2711
-0.0328	-0.7258	-0.2737
-0.0079	-0.7213	-0.3074
-0.0120	-0.7262	-0.3081
-0.0043	-0.7224	-0.3078
-0.0421	-0.7116	-0.2584
-0.0431	-0.6989	-0.2587
-0.0478	-0.7031	-0.2580
-0.0452	-0.7035	-0.2608
-0.0420	-0.6920	-0.2790
-0.0420	-0.6885	-0.2788
-0.0389	-0.6855	-0.2795
-0.0441	-0.6879	-0.2787
-0.0385	-0.6892	-0.2855
-0.0424	-0.6916	-0.2860
-0.0327	-0.6898	-0.3014
-0.0289	-0.6937	-0.3064
-0.0339	-0.6980	-0.3049
-0.0270	-0.6933	-0.3091
-0.0316	-0.6960	-0.3031
0.0762	-0.7293	-0.2989
0.0763	-0.7273	-0.3016
0.0777	-0.7226	-0.2976
0.0402	-0.7240	-0.2951
0.0119	-0.7089	-0.3047
0.0069	-0.7113	-0.3138
-0.0015	-0.7106	-0.3239
-0.0031	-0.7089	-0.3233
-0.0053	-0.7079	-0.3278
-0.0007	-0.6969	-0.3307
-0.0071	-0.6960	-0.3304
-0.0010	-0.6961	-0.3283
-0.0004	-0.6980	-0.3334
0.0051	-0.6893	-0.3356
0.0082	-0.6871	-0.3420
0.0072	-0.6918	-0.3456
0.0134	-0.6900	-0.3528
0.0132	-0.6920	-0.3599
0.0195	-0.6901	-0.3585
0.0243	-0.6923	-0.3559
0.0275	-0.6818	-0.3707
0.0318	-0.6760	-0.3773
0.0323	-0.6774	-0.3674
0.0415	-0.6773	-0.3702
0.0535	-0.6772	-0.3627
0.0566	-0.6780	-0.3665
0.0653	-0.6811	-0.3591
0.0725	-0.6805	-0.3600
0.0885	-0.6881	-0.3456
0.0968	-0.6809	-0.3445
0.1065	-0.6857	-0.3369
0.1130	-0.6865	-0.3359
0.1182	-0.6909	-0.3397
0.1314	-0.6944	-0.3267
0.1401	-0.7093	-0.3225
0.1413	-0.7140	-0.3122
0.1363	-0.7201	-0.3168
0.0937	-0.7169	-0.3240
0.0884	-0.7169	-0.3284
0.0987	-0.7055	-0.3356
0.0992	-0.7051	-0.3359
0.0986	-0.7124	-0.3450
0.0957	-0.7085	-0.3408
0.0906	-0.7075	-0.3434
0.0843	-0.7106	-0.3435
0.0750	-0.7186	-0.3366
0.0526	-0.7144	-0.3552
0.0556	-0.7115	-0.3612
0.0580	-0.7089	-0.3603
0.0559	-0.7071	-0.3649
0.0520	-0.7066	-0.3679
0.0475	-0.7064	-0.3702
0.0493	-0.7059	-0.3633
0.0296	-0.7002	-0.3683
0.0299	-0.6980	-0.3730
0.0324	-0.6980	-0.3722
0.0332	-0.6988	-0.3765
0.0309	-0.6965	-0.3817
0.0310	-0.6910	-0.3796
0.0269	-0.6909	-0.3769
0.0267	-0.6880	-0.3671
0.0202	-0.6946	-0.3632
0.0185	-0.6928	-0.3534
0.0215	-0.7076	-0.3350
0.0224	-0.7123	-0.3372
0.0334	-0.7145	-0.3275
0.0363	-0.7171	-0.3331
0.0611	-0.7242	-0.3175
0.0902	-0.7376	-0.3222
