0.0497	-0.3059	-0.1115
0.0534	-0.3036	-0.1053
0.0582	-0.2966	-0.1069
0.0542	-0.3011	-0.1115
0.0593	-0.3004	-0.1120
0.0577	-0.2888	-0.1161
0.0604	-0.2869	-0.1130
0.0613	-0.2822	-0.1160
0.0571	-0.2837	-0.1160
0.0584	-0.2874	-0.1078
0.0582	-0.2858	-0.1101
0.0550	-0.2823	-0.1106
0.0606	-0.2758	-0.1092
0.0588	-0.2747	-0.1087
0.0574	-0.2784	-0.1104
0.0553	-0.2793	-0.1115
0.0611	-0.2664	-0.1077
0.0582	-0.2650	-0.1106
0.0607	-0.2568	-0.1116
0.0575	-0.2559	-0.1144
0.0592	-0.2676	-0.1087
0.0556	-0.2645	-0.1085
0.0604	-0.2510	-0.1068
0.0595	-0.2511	-0.1066
0.0582	-0.2484	-0.1080
0.0593	-0.2361	-0.1097
0.0576	-0.2319	-0.1099
0.0634	-0.2298	-0.1077
0.0584	-0.2290	-0.1086
0.0602	-0.2277	-0.1095
0.0581	-0.2253	-0.1094
0.0621	-0.2185	-0.1052
0.0644	-0.2190	-0.1019
0.0637	-0.2161	-0.1038
0.0627	-0.2107	-0.1057
0.0631	-0.2078	-0.1062
0.0641	-0.2063	-0.1014
0.0651	-0.2047	-0.1008
0.0636	-0.2004	-0.0997
0.0614	-0.1976	-0.0979
0.0680	-0.2035	-0.0924
0.0615	-0.1971	-0.0941
0.0614	-0.2003	-0.0931
0.0655	-0.1959	-0.0911
0.0655	-0.1906	-0.0890
0.0604	-0.1942	-0.0892
0.0637	-0.1960	-0.0858
0.0623	-0.1944	-0.0881
0.0582	-0.1874	-0.0916
0.0645	-0.1872	-0.0866
0.0641	-0.1906	-0.0903
0.0637	-0.1905	-0.0806
0.0571	-0.1821	-0.0873
0.0631	-0.1826	-0.0870
0.0672	-0.1876	-0.0863
0.0607	-0.1861	-0.0895
0.1285	-0.3407	-0.2797
0.1329	-0.3334	-0.2768
0.1283	-0.3274	-0.2816
0.1225	-0.3322	-0.2865
0.1248	-0.3269	-0.2819
0.1211	-0.3285	-0.2892
0.1261	-0.3126	-0.2814
0.1235	-0.3094	-0.2879
0.1253	-0.2998	-0.2838
0.1249	-0.2993	-0.2861
0.1258	-0.2959	-0.2854
0.1302	-0.3075	-0.2815
0.1296	-0.3023	-0.2823
0.1344	-0.3048	-0.2753
0.1319	-0.2976	-0.2790
0.1329	-0.3064	-0.2767
0.1370	-0.2853	-0.2756
0.1358	-0.2848	-0.2762
0.1366	-0.2877	-0.2735
0.1356	-0.2838	-0.2678
0.1358	-0.2832	-0.2653
0.1359	-0.2802	-0.2684
0.1378	-0.2566	-0.2748
0.1418	-0.2540	-0.2695
0.1409	-0.2509	-0.2736
0.1450	-0.2483	-0.2714
0.1437	-0.2455	-0.2732
0.1430	-0.2483	-0.2705
0.1460	-0.2435	-0.2616
0.1436	-0.2206	-0.2673
0.1519	-0.2002	-0.2685
0.1522	-0.2055	-0.2637
0.1593	-0.1972	-0.2598
0.1580	-0.1880	-0.2639
0.1537	-0.1829	-0.2662
0.1530	-0.1808	-0.2674
0.1479	-0.1747	-0.2660
0.1501	-0.1701	-0.2626
0.1482	-0.1695	-0.2632
0.1481	-0.1574	-0.2623
0.1510	-0.1602	-0.2618
0.1496	-0.1448	-0.2573
0.1481	-0.1449	-0.2653
0.1512	-0.1576	-0.2572
0.1526	-0.1508	-0.2624
0.1560	-0.1476	-0.2599
0.1551	-0.1421	-0.2683
0.1530	-0.1430	-0.2665
0.1522	-0.1431	-0.2650
0.0729	-0.2983	-0.0990
0.0717	-0.2934	-0.1002
0.0724	-0.3032	-0.0980
0.0762	-0.3000	-0.0967
0.0794	-0.2918	-0.0944
0.0760	-0.2926	-0.0947
0.0750	-0.2889	-0.0947
0.0786	-0.2887	-0.0955
0.0750	-0.2821	-0.0973
0.0767	-0.2815	-0.0971
0.0794	-0.2825	-0.0977
0.0776	-0.2875	-0.1001
0.0816	-0.2892	-0.0973
0.0789	-0.2809	-0.0963
0.0718	-0.2709	-0.0959
0.0811	-0.2763	-0.0923
0.0748	-0.2738	-0.0981
0.0843	-0.2593	-0.0939
0.0850	-0.2581	-0.0983
0.0799	-0.2509	-0.1014
0.0852	-0.2531	-0.0990
0.0780	-0.2458	-0.0999
0.0853	-0.2495	-0.0941
0.0835	-0.2453	-0.0959
0.0828	-0.2382	-0.0937
0.0824	-0.2219	-0.0933
0.0821	-0.2189	-0.0921
0.0759	-0.2129	-0.0898
0.0792	-0.2247	-0.0925
0.0840	-0.2279	-0.0981
0.0810	-0.2076	-0.0906
0.0801	-0.1963	-0.0922
0.0769	-0.1948	-0.0897
0.0784	-0.1926	-0.0898
0.0711	-0.1915	-0.0951
0.0810	-0.2005	-0.0908
0.0798	-0.1979	-0.0914
0.0809	-0.1949	-0.0901
0.0754	-0.1957	-0.0925
0.0827	-0.2109	-0.0975
0.0863	-0.2162	-0.0957
0.0861	-0.1954	-0.0950
0.0800	-0.1802	-0.0875
0.0865	-0.1822	-0.0857
0.0862	-0.1962	-0.0901
0.0850	-0.1950	-0.0900
0.0830	-0.1760	-0.0857
0.0826	-0.1616	-0.0881
0.0864	-0.1623	-0.0844
0.0821	-0.1602	-0.0868
0.0757	-0.1579	-0.0905
0.0768	-0.1546	-0.0887
0.2071	-0.3666	-0.2620
0.2029	-0.3678	-0.2596
0.2059	-0.3664	-0.2633
0.2068	-0.3429	-0.2629
0.2041	-0.3448	-0.2584
0.2015	-0.3409	-0.2544
0.1961	-0.3373	-0.2585
0.1960	-0.3394	-0.2589
0.1913	-0.3225	-0.2556
0.1939	-0.3191	-0.2613
0.1972	-0.3211	-0.2640
0.1936	-0.3227	-0.2627
0.1928	-0.3102	-0.2660
0.1897	-0.3027	-0.2639
0.1952	-0.2959	-0.2586
0.1966	-0.2954	-0.2619
0.1929	-0.2883	-0.2563
0.1883	-0.2762	-0.2641
0.1889	-0.2702	-0.2580
0.1922	-0.2600	-0.2579
0.1908	-0.2587	-0.2582
0.1930	-0.2527	-0.2612
0.1908	-0.2517	-0.2576
0.1893	-0.2410	-0.2603
0.1917	-0.2317	-0.2577
0.1910	-0.2242	-0.2591
0.1872	-0.2152	-0.2622
0.1891	-0.2132	-0.2610
0.1822	-0.2010	-0.2611
0.1858	-0.2010	-0.2598
0.1932	-0.1947	-0.2602
0.1743	-0.1801	-0.2522
0.1735	-0.1785	-0.2551
0.1751	-0.1770	-0.2579
0.1833	-0.1638	-0.2575
0.1853	-0.1626	-0.2561
0.1850	-0.1575	-0.2567
0.1842	-0.1471	-0.2588
0.1822	-0.1506	-0.2621
0.1907	-0.1506	-0.2660
0.1911	-0.1515	-0.2617
0.1833	-0.1561	-0.2611
0.1869	-0.1695	-0.2595
0.1816	-0.1825	-0.2581
0.1859	-0.1910	-0.2588
0.1900	-0.1966	-0.2605
0.1909	-0.2004	-0.2607
0.1891	-0.2037	-0.2605
0.1914	-0.2262	-0.2618
0.1901	-0.2355	-0.2623
0.1928	-0.2428	-0.2649
0.1915	-0.2508	-0.2651
0.1953	-0.2580	-0.2610
