0.5318	-0.4862	0.3250
0.5295	-0.4991	0.3258
0.5264	-0.5012	0.3237
0.5211	-0.5050	0.3223
0.5184	-0.5089	0.3177
0.5140	-0.5154	0.3214
0.5089	-0.5246	0.3207
0.5037	-0.5310	0.3198
0.5020	-0.5351	0.3189
0.5035	-0.5366	0.3158
0.5022	-0.5489	0.3190
0.5021	-0.5518	0.3216
0.5025	-0.5554	0.3170
0.5000	-0.5621	0.3201
0.5009	-0.5616	0.3191
0.5010	-0.5691	0.3214
0.5013	-0.5734	0.3195
0.5031	-0.5908	0.3229
0.5055	-0.6031	0.3234
0.5119	-0.6033	0.3240
0.5305	-0.6209	0.3420
0.5387	-0.6125	0.3387
0.5461	-0.6064	0.3422
0.5526	-0.6191	0.3514
0.5563	-0.6186	0.3531
0.5656	-0.6184	0.3495
0.5859	-0.5829	0.3555
0.5909	-0.5752	0.3506
0.5897	-0.5682	0.3546
0.5921	-0.5715	0.3551
0.5946	-0.5689	0.3537
0.5925	-0.5607	0.3561
0.5887	-0.5583	0.3552
0.5900	-0.5234	0.3591
0.5850	-0.5126	0.3584
0.5849	-0.5100	0.3570
0.5834	-0.4977	0.3486
0.5796	-0.4826	0.3446
0.5775	-0.4886	0.3501
0.5836	-0.4990	0.3501
0.5741	-0.4900	0.3523
0.5736	-0.4942	0.3531
0.5664	-0.4907	0.3513
0.5585	-0.4804	0.3490
0.5575	-0.4815	0.3477
0.5894	-0.6046	0.2459
0.5949	-0.6088	0.2434
0.6024	-0.6072	0.2491
0.6019	-0.6093	0.2523
0.6066	-0.6027	0.2560
0.6108	-0.5893	0.2533
0.6160	-0.5910	0.2551
0.6192	-0.5857	0.2591
0.6265	-0.5856	0.2607
0.6240	-0.5871	0.2628
0.6296	-0.5873	0.2654
0.6310	-0.5786	0.2668
0.6375	-0.5762	0.2666
0.6349	-0.5638	0.2673
0.6343	-0.5611	0.2664
0.6393	-0.5550	0.2646
0.6288	-0.5438	0.2699
0.6290	-0.5393	0.2668
0.6253	-0.5334	0.2664
0.6239	-0.5131	0.2673
0.6141	-0.5154	0.2662
0.6040	-0.5088	0.2593
0.5976	-0.5045	0.2553
0.5876	-0.5098	0.2501
0.5863	-0.5063	0.2433
0.5811	-0.5038	0.2428
0.5690	-0.5207	0.2354
0.5624	-0.5273	0.2356
0.5696	-0.5249	0.2354
0.5606	-0.5259	0.2390
0.5574	-0.5277	0.2390
0.5561	-0.5196	0.2377
0.5490	-0.5182	0.2328
0.5529	-0.5180	0.2345
0.5460	-0.5276	0.2344
0.5438	-0.5241	0.2315
0.5339	-0.5244	0.2342
0.5404	-0.5264	0.2305
0.5401	-0.5293	0.2252
0.5465	-0.5401	0.2258
0.5477	-0.5425	0.2290
0.5497	-0.5424	0.2355
0.5466	-0.5430	0.2368
0.5467	-0.5426	0.2342
0.5473	-0.5448	0.2331
0.5455	-0.5379	0.2318
0.5481	-0.5402	0.2304
0.5508	-0.5779	0.2180
0.5512	-0.5752	0.2187
0.5528	-0.5752	0.2204
0.5517	-0.5807	0.2247
0.5543	-0.5833	0.2268
0.5487	-0.5881	0.2313
0.5563	-0.5908	0.2308
0.5542	-0.5914	0.2344
0.5597	-0.5907	0.2364
0.5650	-0.5895	0.2381
0.5597	-0.5907	0.2416
0.5640	-0.5908	0.2422
0.5701	-0.5974	0.2424
0.5780	-0.5990	0.2460
0.5756	-0.5992	0.2475
0.5806	-0.6026	0.2462
0.5779	-0.6038	0.2467
0.5726	-0.6042	0.2465
0.5679	-0.6062	0.2414
0.5613	-0.6078	0.2382
0.5567	-0.6081	0.2365
0.6160	-0.5957	0.2596
0.6162	-0.6015	0.2625
0.6188	-0.6032	0.2624
0.6291	-0.5928	0.2682
0.6341	-0.5822	0.2723
0.6385	-0.5799	0.2771
0.6358	-0.5701	0.2836
0.6371	-0.5633	0.2802
0.6390	-0.5480	0.2835
0.6353	-0.5365	0.2864
0.6318	-0.5336	0.2834
0.6327	-0.5323	0.2838
0.6337	-0.5322	0.2827
0.6292	-0.5278	0.2809
0.5772	-0.6040	0.3358
0.5722	-0.6061	0.3354
0.5779	-0.6042	0.3340
0.5862	-0.6064	0.3387
0.5857	-0.5968	0.3389
0.5974	-0.5884	0.3440
0.6067	-0.5812	0.3503
0.6022	-0.5740	0.3498
0.6019	-0.5682	0.3512
0.6027	-0.5674	0.3497
0.5998	-0.5533	0.3503
0.6023	-0.5385	0.3495
0.5964	-0.5371	0.3485
0.6003	-0.5333	0.3513
0.5910	-0.5310	0.3511
0.5938	-0.5309	0.3497
0.5672	-0.5948	0.2361
0.5666	-0.5958	0.2331
0.5568	-0.5860	0.2337
0.5487	-0.5803	0.2325
0.5411	-0.5685	0.2311
0.5376	-0.5662	0.2254
0.5422	-0.5624	0.2284
0.5397	-0.5556	0.2260
0.5367	-0.5568	0.2278
0.5397	-0.5539	0.2279
0.5366	-0.5548	0.2270
0.5390	-0.5515	0.2259
0.5352	-0.5465	0.2258
0.5356	-0.5470	0.2277
0.5336	-0.5409	0.2314
0.5328	-0.5378	0.2292
0.5339	-0.5341	0.2278
0.5304	-0.5932	0.3121
0.5220	-0.5906	0.3077
0.5141	-0.5825	0.3067
0.5077	-0.5721	0.3066
0.5011	-0.5679	0.3046
0.5002	-0.5610	0.3031
0.4942	-0.5541	0.3001
0.4892	-0.5492	0.3002
0.4917	-0.5415	0.2996
0.4942	-0.5410	0.2973
0.4933	-0.5315	0.2997
0.4936	-0.5297	0.2999
0.4929	-0.5270	0.2969
0.4971	-0.5225	0.2993
