-0.1496	1.1139	0.1200
-0.1499	1.1145	0.1212
-0.1505	1.1179	0.1214
-0.1498	1.1137	0.1198
-0.1490	1.1110	0.1222
-0.1489	1.1081	0.1217
-0.1474	1.1020	0.1204
-0.1491	1.0965	0.1189
-0.1487	1.0923	0.1212
-0.1472	1.0846	0.1201
-0.1457	1.0813	0.1221
-0.1451	1.0693	0.1218
-0.1453	1.0624	0.1216
-0.1467	1.0500	0.1144
-0.1477	1.0433	0.1145
-0.1482	1.0385	0.1153
-0.1478	1.0258	0.1145
-0.1488	1.0120	0.1112
-0.1493	0.9925	0.1144
-0.1504	0.9754	0.1142
-0.1513	0.9695	0.1185
-0.1512	0.9759	0.1311
-0.1519	0.9641	0.1320
-0.1527	0.9450	0.1327
-0.1569	0.9329	0.1319
-0.1591	0.9152	0.1324
-0.1617	0.8793	0.1316
-0.1607	0.8649	0.1304
-0.1596	0.8498	0.1285
-0.1596	0.8330	0.1285
-0.1595	0.8259	0.1300
-0.1599	0.8159	0.1298
-0.1586	0.7983	0.1294
-0.1614	0.7906	0.1279
-0.1601	0.7809	0.1288
-0.1550	0.7468	0.1306
-0.1562	0.7276	0.1341
-0.1536	0.7142	0.1344
-0.1526	0.6967	0.1327
-0.1531	0.6920	0.1341
-0.1508	0.6781	0.1325
-0.1518	0.6696	0.1322
-0.1492	0.6625	0.1358
-0.1496	0.6505	0.1374
-0.1504	0.6338	0.1370
-0.1518	0.6226	0.1368
-0.1537	0.6090	0.1363
-0.1547	0.5903	0.1362
-0.1563	0.5768	0.1344
-0.1564	0.5683	0.1364
-0.1579	0.5551	0.1361
-0.1595	0.5396	0.1354
-0.1593	0.5206	0.1364
-0.1592	0.4801	0.1368
-0.1612	0.4436	0.1386
-0.1607	0.4294	0.1390
-0.1617	0.4098	0.1384
-0.1604	0.3937	0.1390
-0.1614	0.3826	0.1385
-0.1626	0.3687	0.1403
-0.1645	0.3562	0.1383
-0.1646	0.3358	0.1394
-0.1704	0.3357	0.1387
-0.1708	0.3271	0.1379
-0.1735	0.3159	0.1387
-0.1736	0.3099	0.1384
-0.1734	0.3117	0.1377
-0.1722	0.3083	0.1387
-0.1738	0.3053	0.1387
-0.1715	0.2850	0.1386
-0.1726	0.2689	0.1412
-0.1719	0.2595	0.1413
-0.1730	0.2550	0.1410
-0.1733	0.2570	0.1429
-0.1726	0.2541	0.1425
-0.1715	0.2542	0.1439
-0.1735	0.2542	0.1425
-0.1694	0.2428	0.1446
-0.1596	0.2340	0.1468
-0.1604	0.2288	0.1451
-0.1626	0.2362	0.1457
-0.1607	0.2311	0.1469
-0.1618	0.2349	0.1450
-0.1601	0.2359	0.1470
-0.1617	0.2363	0.1461
-0.1621	0.2330	0.1468
-0.1614	0.2338	0.1466
-0.1612	0.2334	0.1466
-0.1038	1.1172	0.1310
-0.1061	1.1147	0.1288
-0.1028	1.1051	0.1286
-0.1021	1.0921	0.1265
-0.1020	1.0834	0.1263
-0.1035	1.0747	0.1265
-0.0994	1.0621	0.1268
-0.0971	1.0470	0.1260
-0.0959	1.0323	0.1262
-0.0946	1.0175	0.1255
-0.0967	0.9945	0.1259
-0.1014	0.9618	0.1301
-0.1036	0.9469	0.1338
-0.1095	0.9272	0.1411
-0.1118	0.8844	0.1388
-0.1125	0.8480	0.1367
-0.1120	0.8213	0.1346
-0.1129	0.8065	0.1331
-0.1112	0.7830	0.1368
-0.1073	0.7490	0.1393
-0.1065	0.7296	0.1417
-0.1054	0.7077	0.1411
-0.1059	0.6844	0.1409
-0.1065	0.6724	0.1438
-0.1045	0.6584	0.1465
-0.1032	0.6390	0.1478
-0.1030	0.5919	0.1464
-0.1052	0.5521	0.1484
-0.1045	0.5299	0.1508
-0.1037	0.5035	0.1506
-0.1038	0.4813	0.1530
-0.1028	0.4577	0.1531
-0.1035	0.4318	0.1542
-0.1048	0.4158	0.1544
-0.1085	0.3829	0.1538
-0.1124	0.3497	0.1520
-0.1110	0.3350	0.1542
-0.1116	0.3232	0.1521
-0.1127	0.3157	0.1542
-0.1123	0.3038	0.1547
-0.1147	0.2900	0.1538
-0.1138	0.2727	0.1546
-0.1124	0.2369	0.1561
-0.1123	0.2329	0.1565
-0.1152	0.2358	0.1559
-0.1114	0.2329	0.1570
-0.1113	0.2310	0.1555
-0.1135	0.2352	0.1555
-0.1128	0.2356	0.1552
-0.0282	1.1182	0.1410
-0.0279	1.1176	0.1411
-0.0287	1.1181	0.1418
-0.0261	1.1019	0.1407
-0.0223	1.0704	0.1429
-0.0193	1.0541	0.1442
-0.0166	1.0371	0.1466
-0.0145	1.0200	0.1489
-0.0111	0.9990	0.1507
-0.0126	0.9744	0.1505
-0.0128	0.9416	0.1497
-0.0122	0.8483	0.1461
-0.0115	0.8007	0.1614
-0.0124	0.7570	0.1652
-0.0075	0.7049	0.1666
-0.0067	0.6592	0.1658
-0.0065	0.6299	0.1668
-0.0056	0.6051	0.1687
-0.0058	0.5731	0.1673
-0.0009	0.4979	0.1681
-0.0039	0.4162	0.1690
-0.0058	0.3820	0.1695
-0.0071	0.3611	0.1687
-0.0093	0.3435	0.1703
-0.0148	0.3371	0.1687
-0.0146	0.3265	0.1705
-0.0160	0.3129	0.1732
-0.0194	0.2813	0.1748
-0.0161	0.2489	0.1785
-0.0178	0.2291	0.1774
-0.0168	0.2174	0.1779
-0.0207	0.2291	0.1758
-0.0182	0.2249	0.1772
-0.0186	0.2239	0.1778
-0.0206	0.2255	0.1759
0.0596	1.1128	0.1542
0.0583	1.1085	0.1515
0.0577	1.1036	0.1524
0.0607	1.0931	0.1521
0.0638	1.0772	0.1516
0.0665	1.0592	0.1496
0.0706	1.0429	0.1504
0.0732	1.0260	0.1516
0.0767	0.9962	0.1560
0.0788	0.9528	0.1630
0.0827	0.9186	0.1647
0.0850	0.8773	0.1629
0.0875	0.8392	0.1614
0.0902	0.8140	0.1630
0.0915	0.7785	0.1713
0.0911	0.7216	0.1716
0.0869	0.6376	0.1742
0.0785	0.5857	0.1749
0.0773	0.5572	0.1749
0.0809	0.5219	0.1747
0.0812	0.4931	0.1750
0.0791	0.4749	0.1778
0.0782	0.4534	0.1776
0.0761	0.4313	0.1774
0.0715	0.3863	0.1786
0.0707	0.3426	0.1804
0.0708	0.3226	0.1816
0.0717	0.3050	0.1826
0.0746	0.2845	0.1863
0.0761	0.2709	0.1873
0.0804	0.2501	0.1890
0.0838	0.2365	0.1903
0.0861	0.2158	0.1921
0.0847	0.2146	0.1924
0.0861	0.2186	0.1927
0.0825	0.2193	0.1920
0.0845	0.2177	0.1913
0.1257	1.0320	0.1493
0.1260	1.0342	0.1501
0.1263	1.0328	0.1502
0.1244	1.0265	0.1492
0.1252	1.0248	0.1500
0.1273	1.0169	0.1504
0.1286	1.0045	0.1481
0.1376	0.9711	0.1460
0.1381	0.9336	0.1500
0.1390	0.9083	0.1515
0.1403	0.8779	0.1464
0.1421	0.8581	0.1467
0.1430	0.8457	0.1500
0.1427	0.8330	0.1514
0.1414	0.8136	0.1542
0.1427	0.7712	0.1600
0.1407	0.7231	0.1630
0.1429	0.6940	0.1645
0.1430	0.6710	0.1647
0.1394	0.6527	0.1635
0.1371	0.6336	0.1654
0.1385	0.6129	0.1696
0.1379	0.5948	0.1684
0.1463	0.5385	0.1695
0.1511	0.4976	0.1716
0.1502	0.4873	0.1735
0.1510	0.4723	0.1749
0.1483	0.4579	0.1760
0.1448	0.4507	0.1766
0.1379	0.4418	0.1753
0.1346	0.4323	0.1758
0.1252	0.4155	0.1740
0.1237	0.3824	0.1755
0.1259	0.3651	0.1754
0.1295	0.3394	0.1784
0.1331	0.3188	0.1783
0.1325	0.3112	0.1793
0.1287	0.3103	0.1792
0.1308	0.3045	0.1795
0.1324	0.2915	0.1849
0.1355	0.2746	0.1883
0.1358	0.2557	0.1889
0.1398	0.2406	0.1906
0.1403	0.2305	0.1933
0.1391	0.2193	0.1940
0.1417	0.2060	0.1948
0.1422	0.2040	0.1947
0.1432	0.2070	0.1945
0.1421	0.2098	0.1939
0.1449	0.2107	0.1965
-0.1449	1.1114	0.1250
-0.1420	1.1111	0.1249
-0.1395	1.1079	0.1235
-0.1367	1.1073	0.1269
-0.1320	1.1064	0.1280
-0.1284	1.1042	0.1251
-0.1312	1.1081	0.1277
-0.1334	1.1114	0.1280
-0.1314	1.1115	0.1283
-0.1261	1.1101	0.1285
-0.1119	1.1076	0.1289
-0.1062	1.1120	0.1318
-0.0994	1.1159	0.1334
-0.0903	1.1142	0.1339
-0.0844	1.1128	0.1349
-0.0767	1.1105	0.1348
-0.0683	1.1144	0.1385
-0.0554	1.1105	0.1401
-0.0424	1.1069	0.1396
-0.0383	1.1106	0.1405
-0.0321	1.1108	0.1418
-0.0265	1.1129	0.1420
-0.0197	1.1118	0.1445
-0.0152	1.1113	0.1429
-0.0083	1.1102	0.1462
0.0095	1.1060	0.1469
0.0264	1.1051	0.1505
0.0355	1.1017	0.1507
0.0440	1.1080	0.1533
0.0536	1.1122	0.1570
0.0613	1.1151	0.1570
0.0705	1.1126	0.1588
0.0765	1.1163	0.1605
0.0854	1.1151	0.1595
0.0886	1.1221	0.1619
0.0913	1.1197	0.1613
0.0913	1.1188	0.1619
0.0914	1.1233	0.1616
0.0911	1.1214	0.1606
0.0919	1.1174	0.1586
0.0895	1.1209	0.1584
-0.1660	1.1695	0.0568
-0.1648	1.1695	0.0547
-0.1650	1.1682	0.0552
-0.1630	1.1709	0.0602
-0.1522	1.1663	0.0609
-0.1456	1.1672	0.0639
-0.1372	1.1641	0.0646
-0.1383	1.1617	0.0651
-0.1439	1.1659	0.0655
-0.1418	1.1681	0.0674
-0.1385	1.1663	0.0683
-0.1408	1.1651	0.0690
-0.1349	1.1632	0.0748
-0.1291	1.1611	0.0745
-0.1205	1.1627	0.0718
-0.1117	1.1620	0.0725
-0.1048	1.1608	0.0744
-0.0967	1.1670	0.0758
-0.0830	1.1669	0.0764
-0.0640	1.1632	0.0781
-0.0457	1.1666	0.0804
-0.0349	1.1676	0.0836
-0.0257	1.1656	0.0843
-0.0156	1.1702	0.0882
0.0001	1.1690	0.0898
0.0111	1.1680	0.0904
0.0207	1.1741	0.0932
0.0403	1.1736	0.0949
0.0555	1.1842	0.0981
0.0650	1.1865	0.1005
0.0740	1.1825	0.1007
0.0802	1.1855	0.1021
0.0859	1.1884	0.1034
0.0973	1.1905	0.1065
0.1066	1.1840	0.1069
0.1196	1.1889	0.1091
0.1375	1.1856	0.1034
0.1382	1.1983	0.1038
0.1403	1.2006	0.1019
0.1448	1.1987	0.1005
0.1483	1.1970	0.0996
0.1476	1.2025	0.0992
0.1517	1.2048	0.0995
0.1628	1.1929	0.0950
0.1539	1.1926	0.0911
0.1445	1.0308	0.1356
0.1461	1.0352	0.1397
0.1443	1.0301	0.1376
0.1445	1.0255	0.1376
0.1440	1.0208	0.1390
0.1433	1.0068	0.1409
0.1478	0.9765	0.1384
0.1475	0.9642	0.1413
0.1459	0.9582	0.1409
0.1469	0.9430	0.1416
0.1472	0.9309	0.1428
0.1446	0.9260	0.1447
0.1504	0.9017	0.1427
0.1492	0.8755	0.1406
0.1531	0.8475	0.1382
0.1520	0.8341	0.1364
0.1553	0.8219	0.1377
0.1568	0.8124	0.1404
0.1559	0.7998	0.1410
0.1573	0.7935	0.1463
0.1566	0.7813	0.1476
0.1571	0.7563	0.1537
0.1577	0.7207	0.1537
0.1582	0.7022	0.1556
0.1593	0.6864	0.1569
0.1602	0.6702	0.1578
0.1599	0.6501	0.1583
0.1581	0.6390	0.1590
0.1591	0.6205	0.1599
0.1535	0.5939	0.1613
0.1546	0.5575	0.1627
0.1583	0.5367	0.1633
0.1601	0.5198	0.1637
0.1631	0.4935	0.1637
0.1664	0.4694	0.1642
0.1699	0.4607	0.1663
0.1714	0.4427	0.1665
0.1714	0.4131	0.1632
0.1653	0.3780	0.1604
0.1626	0.3695	0.1616
0.1603	0.3578	0.1600
0.1569	0.3416	0.1610
0.1556	0.3202	0.1614
0.1568	0.3065	0.1629
0.1555	0.2846	0.1659
0.1605	0.2428	0.1708
0.1610	0.2336	0.1721
0.1592	0.2415	0.1708
0.1575	0.2393	0.1714
0.1583	0.2384	0.1721
0.1589	0.2405	0.1730
0.1585	0.2387	0.1743
0.1587	0.2405	0.1734
0.1592	0.2448	0.1741
0.1671	0.2310	0.1793
0.1645	0.2253	0.1784
0.1611	0.2178	0.1800
0.1685	0.2165	0.1803
0.1638	0.2172	0.1757
0.1662	0.2184	0.1777
0.1678	0.2186	0.1777
0.1677	0.2239	0.1776
0.1430	0.2147	0.1962
0.1397	0.2148	0.1949
0.1396	0.2102	0.1966
0.1398	0.2121	0.1972
0.1361	0.2155	0.1978
0.1264	0.2150	0.1982
0.1149	0.2150	0.1981
0.1019	0.2189	0.1969
0.0789	0.2215	0.1947
0.0536	0.2211	0.1908
0.0463	0.2257	0.1919
0.0363	0.2227	0.1911
0.0289	0.2214	0.1917
0.0165	0.2219	0.1891
0.0045	0.2206	0.1871
-0.0066	0.2210	0.1877
-0.0290	0.2269	0.1822
-0.0458	0.2326	0.1794
-0.0400	0.2316	0.1812
-0.0460	0.2310	0.1783
-0.0448	0.2307	0.1786
-0.0596	0.2294	0.1742
-0.0615	0.2256	0.1737
-0.0636	0.2274	0.1736
-0.0678	0.2251	0.1721
-0.0790	0.2243	0.1715
-0.0918	0.2294	0.1680
-0.1069	0.2273	0.1648
-0.1230	0.2326	0.1606
-0.1486	0.2376	0.1524
-0.1719	0.2378	0.1454
-0.1686	0.2339	0.1441
-0.1681	0.2342	0.1453
-0.1702	0.2353	0.1436
-0.1689	0.2393	0.1446
-0.1714	0.2401	0.1456
-0.1704	0.2406	0.1440
-0.1710	0.2431	0.1454
0.1575	1.0327	0.1465
0.1567	1.0331	0.1454
0.1558	1.0347	0.1462
0.1546	1.0217	0.1444
0.1548	1.0071	0.1412
0.1561	0.9932	0.1366
0.1554	0.9773	0.1320
0.1571	0.9667	0.1319
0.1559	0.9550	0.1298
0.1568	0.9435	0.1318
0.1531	0.9167	0.1330
0.1543	0.8917	0.1326
0.1540	0.8789	0.1343
0.1560	0.8611	0.1325
0.1562	0.8378	0.1313
0.1564	0.8201	0.1333
0.1571	0.8085	0.1353
0.1587	0.7895	0.1346
0.1599	0.7621	0.1375
0.1607	0.7376	0.1355
0.1612	0.7205	0.1350
0.1613	0.7060	0.1332
0.1603	0.6848	0.1329
0.1607	0.6639	0.1326
0.1624	0.6447	0.1343
0.1617	0.6222	0.1345
0.1625	0.5864	0.1389
0.1627	0.5780	0.1410
0.1647	0.5680	0.1400
0.1666	0.5562	0.1414
0.1680	0.5475	0.1419
0.1686	0.5370	0.1410
0.1714	0.5270	0.1418
0.1725	0.5137	0.1399
0.1764	0.4915	0.1367
0.1772	0.4542	0.1320
0.1780	0.4280	0.1311
0.1777	0.4150	0.1352
0.1782	0.4056	0.1366
0.1779	0.3936	0.1381
0.1778	0.3845	0.1414
0.1772	0.3763	0.1437
0.1778	0.3593	0.1454
0.1778	0.3266	0.1487
0.1809	0.2991	0.1478
0.1817	0.2843	0.1478
0.1836	0.2766	0.1458
0.1844	0.2703	0.1461
0.1848	0.2614	0.1463
0.1854	0.2540	0.1432
0.1862	0.2474	0.1426
0.1829	0.2600	0.1462
0.1839	0.2555	0.1456
0.1849	0.2563	0.1447
0.1841	0.2535	0.1443
0.1851	0.2517	0.1432
0.1847	0.2507	0.1426
0.1859	0.2556	0.1419
0.1783	1.2277	0.0743
0.1778	1.2259	0.0727
0.1798	1.2292	0.0717
0.1780	1.2260	0.0731
0.1777	1.2213	0.0722
0.1776	1.2122	0.0721
0.1755	1.2051	0.0714
0.1750	1.2003	0.0744
0.1702	1.1722	0.0780
0.1710	1.1518	0.0808
0.1710	1.1402	0.0800
0.1757	1.1402	0.0764
0.1779	1.1347	0.0768
0.1783	1.1237	0.0762
0.1785	1.1129	0.0749
0.1776	1.1005	0.0747
0.1757	1.0688	0.0743
0.1720	1.0304	0.0708
0.1708	1.0165	0.0695
0.1701	1.0000	0.0719
0.1686	0.9795	0.0728
0.1679	0.9613	0.0714
0.1673	0.9456	0.0755
0.1688	0.9299	0.0769
0.1702	0.8968	0.0769
0.1737	0.8672	0.0775
0.1731	0.8407	0.0757
0.1742	0.8200	0.0729
0.1741	0.8072	0.0732
0.1741	0.7950	0.0735
0.1750	0.7833	0.0713
0.1760	0.7710	0.0723
0.1790	0.7412	0.0737
0.1837	0.7027	0.0817
0.1842	0.6754	0.0848
0.1866	0.6516	0.0879
0.1873	0.6414	0.0857
0.1878	0.6265	0.0859
0.1894	0.6106	0.0872
0.1899	0.5983	0.0833
0.1916	0.5481	0.0866
0.1922	0.5003	0.0850
0.1943	0.4768	0.0835
0.1967	0.4517	0.0870
0.1983	0.4316	0.0818
0.1990	0.4142	0.0812
0.2007	0.4037	0.0845
0.2007	0.3894	0.0820
0.2024	0.3553	0.0796
0.2003	0.3309	0.0790
0.2000	0.3068	0.0791
0.2000	0.3006	0.0786
0.1994	0.3000	0.0794
0.1987	0.2922	0.0821
0.1994	0.2774	0.0803
0.1979	0.2659	0.0836
0.1982	0.2614	0.0831
0.1987	0.2642	0.0819
0.1986	0.2655	0.0817
0.1980	0.2619	0.0827
0.1854	1.2469	-0.0009
0.1863	1.2456	0.0003
0.1871	1.2489	0.0007
0.1882	1.2445	0.0011
0.1869	1.2348	0.0025
0.1850	1.2256	0.0006
0.1848	1.2148	-0.0012
0.1836	1.1844	0.0065
0.1838	1.1540	0.0048
0.1851	1.1298	0.0031
0.1808	1.0966	0.0061
0.1794	1.0698	0.0016
0.1807	1.0524	-0.0014
0.1798	1.0303	-0.0036
0.1750	0.9996	-0.0123
0.1747	0.9492	-0.0124
0.1789	0.9130	-0.0119
0.1820	0.8911	-0.0095
0.1854	0.8576	-0.0082
0.1856	0.8284	-0.0127
0.1831	0.7966	-0.0143
0.1828	0.7656	-0.0158
0.1844	0.7477	-0.0131
0.1923	0.7069	-0.0085
0.1982	0.6601	-0.0017
0.1998	0.6343	-0.0008
0.2003	0.5970	0.0011
0.2006	0.5675	0.0025
0.2015	0.5386	0.0021
0.2019	0.5187	0.0031
0.2032	0.5065	0.0043
0.2029	0.4832	0.0044
0.2042	0.4721	0.0033
0.2045	0.4521	0.0032
0.2041	0.4234	0.0019
0.2053	0.4083	0.0037
0.2070	0.3899	-0.0001
0.2072	0.3731	0.0008
0.2075	0.3589	-0.0005
0.2085	0.3423	-0.0027
0.2097	0.3171	-0.0062
0.2101	0.2923	-0.0036
0.2110	0.2884	-0.0028
0.2105	0.2775	-0.0036
0.2111	0.2631	-0.0049
0.2109	0.2546	-0.0031
0.2100	0.2511	-0.0046
0.2108	0.2554	-0.0018
0.2114	0.2547	-0.0045
0.1917	1.2380	-0.0818
0.1915	1.2359	-0.0791
0.1900	1.2302	-0.0775
0.1892	1.2213	-0.0761
0.1894	1.2092	-0.0756
0.1860	1.1929	-0.0734
0.1851	1.1794	-0.0722
0.1844	1.1586	-0.0725
0.1821	1.1403	-0.0753
0.1875	1.1145	-0.0794
0.1921	1.0780	-0.0879
0.1919	1.0490	-0.0908
0.1902	1.0226	-0.0945
0.1886	0.9959	-0.0959
0.1880	0.9648	-0.0946
0.1904	0.9346	-0.0931
0.1920	0.9086	-0.0908
0.1971	0.8501	-0.0895
0.1982	0.8040	-0.0973
0.1986	0.7733	-0.1009
0.1996	0.7443	-0.1069
0.2028	0.7197	-0.1081
0.2045	0.6955	-0.1073
0.2078	0.6697	-0.1031
0.2092	0.6430	-0.0972
0.2097	0.5858	-0.0925
0.2112	0.5631	-0.0931
0.2118	0.5430	-0.0905
0.2142	0.5235	-0.0913
0.2158	0.5019	-0.0913
0.2173	0.4726	-0.0948
0.2171	0.4354	-0.0983
0.2184	0.4091	-0.0982
0.2188	0.3923	-0.0963
0.2205	0.3555	-0.0895
0.2207	0.3247	-0.0869
0.2214	0.3106	-0.0890
0.2204	0.3007	-0.0871
0.2211	0.2904	-0.0873
0.2206	0.2785	-0.0862
0.2217	0.2676	-0.0896
0.2218	0.2621	-0.0907
0.2230	0.2643	-0.0891
0.2225	0.2702	-0.0841
0.2221	0.2702	-0.0851
0.1919	1.2448	-0.1076
0.1923	1.2470	-0.1060
0.1914	1.2473	-0.1050
0.1883	1.2392	-0.1074
0.1906	1.2221	-0.1075
0.1899	1.2093	-0.1022
0.1887	1.1957	-0.0992
0.1888	1.1783	-0.0941
0.1891	1.1654	-0.0865
0.1881	1.1461	-0.0829
0.1876	1.1300	-0.0820
0.1907	1.1094	-0.0891
0.1918	1.1000	-0.0963
0.1917	1.0926	-0.0953
0.1904	1.0819	-0.0971
0.1907	1.0791	-0.0982
0.1937	1.0735	-0.1000
0.1910	1.0619	-0.1030
0.1932	1.0500	-0.1085
0.1929	1.0177	-0.1180
0.1915	0.9800	-0.1219
0.1931	0.9675	-0.1256
0.1922	0.9459	-0.1232
0.1933	0.9295	-0.1216
0.1951	0.9118	-0.1193
0.1970	0.8921	-0.1185
0.1980	0.8702	-0.1164
0.2011	0.8329	-0.1185
0.2011	0.8077	-0.1209
0.2008	0.7784	-0.1235
0.2009	0.7539	-0.1257
0.2006	0.7225	-0.1259
0.2016	0.6957	-0.1280
0.2046	0.6749	-0.1274
0.2070	0.6456	-0.1242
0.2081	0.6193	-0.1238
0.2114	0.5647	-0.1192
0.2142	0.5291	-0.1208
0.2164	0.5094	-0.1243
0.2169	0.4833	-0.1302
0.2178	0.4522	-0.1362
0.2185	0.4227	-0.1404
0.2172	0.3924	-0.1416
0.2179	0.3688	-0.1449
0.2184	0.3304	-0.1514
0.2163	0.2825	-0.1630
0.2181	0.2742	-0.1617
0.2176	0.2735	-0.1584
0.2177	0.2700	-0.1571
0.2178	0.2714	-0.1598
0.2173	0.2715	-0.1616
0.2178	0.2707	-0.1620
0.2198	0.2759	-0.1624
0.1438	1.1741	0.1121
0.1455	1.1768	0.1116
0.1455	1.1775	0.1118
0.1462	1.1779	0.1136
0.1464	1.1778	0.1094
0.1473	1.1780	0.1047
0.1484	1.1795	0.1013
0.1499	1.1774	0.0945
0.1490	1.1782	0.0896
0.1504	1.1745	0.0876
0.1512	1.1731	0.0817
0.1515	1.1776	0.0700
0.1520	1.1780	0.0638
0.1548	1.1792	0.0532
0.1554	1.1817	0.0452
0.1581	1.1844	0.0349
0.1603	1.1900	0.0240
0.1625	1.1912	0.0082
0.1637	1.1931	-0.0022
0.1653	1.1951	-0.0106
0.1667	1.1952	-0.0147
0.1675	1.1988	-0.0236
0.1695	1.1996	-0.0322
0.1704	1.1996	-0.0382
0.1706	1.2071	-0.0634
0.1725	1.2045	-0.0754
0.1705	1.2045	-0.0767
0.1729	1.2038	-0.0761
0.1726	1.2026	-0.0776
0.1734	1.1988	-0.0826
0.1736	1.2026	-0.0874
0.1729	1.2011	-0.0940
0.1792	1.2171	-0.1092
0.1815	1.2209	-0.1015
0.1800	1.2180	-0.1036
0.1805	1.2170	-0.1055
-0.1076	1.1978	-0.1785
-0.1049	1.1999	-0.1779
-0.1042	1.1993	-0.1786
-0.1027	1.1973	-0.1776
-0.0978	1.1994	-0.1795
-0.0912	1.1994	-0.1789
-0.0842	1.2027	-0.1793
-0.0717	1.1966	-0.1782
-0.0631	1.1968	-0.1771
-0.0554	1.1973	-0.1751
-0.0424	1.2026	-0.1712
-0.0308	1.2045	-0.1711
-0.0187	1.2071	-0.1723
-0.0089	1.2055	-0.1673
0.0020	1.2102	-0.1688
0.0068	1.2085	-0.1727
0.0361	1.2082	-0.1661
0.0571	1.2062	-0.1632
0.0590	1.1960	-0.1621
0.0716	1.1970	-0.1609
0.0841	1.1992	-0.1581
0.0973	1.1988	-0.1551
0.1037	1.1943	-0.1538
0.1112	1.1913	-0.1542
0.1282	1.1868	-0.1486
0.1388	1.1884	-0.1489
0.1440	1.1897	-0.1464
0.1509	1.1945	-0.1458
0.1558	1.1972	-0.1448
0.1616	1.1988	-0.1413
0.1672	1.1966	-0.1385
0.1757	1.2031	-0.1333
0.1750	1.1956	-0.1284
0.1741	1.1940	-0.1300
0.1780	1.1983	-0.1284
0.1781	1.1991	-0.1284
0.1766	1.1968	-0.1296
0.1768	1.2106	-0.1440
0.1797	1.2100	-0.1416
0.1800	1.2139	-0.1427
0.1788	1.2129	-0.1410
0.1776	1.2106	-0.1397
0.1780	1.2116	-0.1450
0.1762	1.1902	-0.1432
0.1792	1.1612	-0.1374
0.1814	1.1466	-0.1365
0.1841	1.1287	-0.1324
0.1850	1.1117	-0.1302
0.1850	1.0993	-0.1300
0.1924	1.0854	-0.1288
0.1916	1.0735	-0.1279
0.1974	1.0613	-0.1353
0.1979	1.0303	-0.1336
0.1990	1.0165	-0.1339
0.2008	0.9945	-0.1314
0.2014	0.9766	-0.1326
0.1984	0.9575	-0.1353
0.1976	0.9442	-0.1406
0.2005	0.9333	-0.1409
0.1991	0.9147	-0.1442
0.2033	0.8991	-0.1416
0.2053	0.8864	-0.1425
0.2062	0.8691	-0.1408
0.2096	0.8476	-0.1376
0.2106	0.8170	-0.1336
0.2124	0.7851	-0.1291
0.2141	0.7583	-0.1266
0.2131	0.7345	-0.1262
0.2131	0.6930	-0.1293
0.2116	0.6557	-0.1366
0.2070	0.6330	-0.1406
0.2035	0.6039	-0.1389
0.2044	0.5817	-0.1387
0.2069	0.5631	-0.1400
0.2053	0.5398	-0.1412
0.2087	0.5200	-0.1418
0.2123	0.4864	-0.1426
0.2104	0.4602	-0.1420
0.2126	0.4449	-0.1438
0.2115	0.4258	-0.1455
0.2108	0.4075	-0.1466
0.2094	0.3953	-0.1515
0.2092	0.3894	-0.1526
0.2094	0.3872	-0.1531
0.2083	0.3718	-0.1572
0.2094	0.3619	-0.1608
0.2096	0.3527	-0.1590
0.2100	0.3386	-0.1583
0.2118	0.3237	-0.1586
0.2121	0.3213	-0.1580
0.2134	0.3149	-0.1594
0.2126	0.3005	-0.1602
0.2143	0.2780	-0.1615
0.2178	0.2636	-0.1649
0.2161	0.2662	-0.1633
0.2164	0.2714	-0.1644
0.2163	0.2689	-0.1658
0.2172	0.2703	-0.1646
0.2147	0.2710	-0.1653
0.2165	0.2721	-0.1653
0.1525	0.2557	0.1973
0.1511	0.2553	0.1934
0.1523	0.2535	0.1953
0.1533	0.2546	0.1924
0.1565	0.2555	0.1941
0.1606	0.2539	0.1867
0.1647	0.2498	0.1854
0.1679	0.2520	0.1828
0.1707	0.2489	0.1785
0.1743	0.2492	0.1761
0.1774	0.2462	0.1698
0.1789	0.2453	0.1628
0.1846	0.2438	0.1511
0.1877	0.2465	0.1313
0.1896	0.2463	0.1255
0.1895	0.2480	0.1205
0.1908	0.2444	0.1162
0.1920	0.2427	0.1104
0.1939	0.2419	0.1078
0.1950	0.2459	0.0992
0.2001	0.2393	0.0761
0.2034	0.2419	0.0612
0.2058	0.2385	0.0505
0.2069	0.2385	0.0408
0.2087	0.2411	0.0288
0.2098	0.2397	0.0199
0.2109	0.2403	0.0108
0.2126	0.2452	0.0010
0.2161	0.2455	-0.0262
0.2184	0.2470	-0.0398
0.2206	0.2475	-0.0506
0.2210	0.2482	-0.0612
0.2216	0.2493	-0.0699
0.2221	0.2513	-0.0773
0.2224	0.2538	-0.0866
0.2235	0.2554	-0.0955
0.2241	0.2607	-0.1045
0.2256	0.2660	-0.1264
0.2268	0.2736	-0.1450
0.2263	0.2724	-0.1548
0.2237	0.2746	-0.1651
0.2203	0.2726	-0.1744
0.2225	0.2753	-0.1724
0.2223	0.2752	-0.1690
0.2212	0.2742	-0.1706
0.2199	0.2735	-0.1735
0.1107	1.2171	-0.1761
0.1067	1.2137	-0.1738
0.1079	1.2110	-0.1727
0.1095	1.2085	-0.1726
0.1092	1.2047	-0.1734
0.1082	1.1920	-0.1720
0.1089	1.1755	-0.1681
0.1100	1.1517	-0.1708
0.1146	1.1266	-0.1716
0.1174	1.1120	-0.1701
0.1216	1.1021	-0.1736
0.1209	1.0866	-0.1719
0.1199	1.0686	-0.1726
0.1189	1.0474	-0.1699
0.1184	1.0220	-0.1661
0.1191	0.9706	-0.1642
0.1177	0.9140	-0.1652
0.1171	0.8938	-0.1666
0.1146	0.8764	-0.1706
0.1131	0.8634	-0.1723
0.1127	0.8560	-0.1739
0.1123	0.8420	-0.1742
0.1166	0.8337	-0.1740
0.1181	0.7879	-0.1722
0.1207	0.7308	-0.1756
0.1235	0.7094	-0.1819
0.1235	0.6926	-0.1906
0.1237	0.6769	-0.1947
0.1212	0.6527	-0.1954
0.1186	0.6225	-0.1938
0.1168	0.5919	-0.1918
0.1219	0.5472	-0.1889
0.1244	0.5268	-0.1880
0.1278	0.5137	-0.1911
0.1293	0.4949	-0.1918
0.1292	0.4860	-0.1943
0.1285	0.4793	-0.1970
0.1299	0.4637	-0.1969
0.1318	0.4493	-0.2005
0.1332	0.4292	-0.1999
0.1308	0.3926	-0.2035
0.1338	0.3417	-0.2006
0.1317	0.3208	-0.1983
0.1285	0.3072	-0.1998
0.1293	0.2927	-0.1990
0.1307	0.2809	-0.1993
0.1317	0.2750	-0.1984
0.1307	0.2696	-0.1998
0.1325	0.2652	-0.1949
0.0091	1.2073	-0.1796
0.0098	1.2104	-0.1796
0.0105	1.2086	-0.1816
0.0106	1.2039	-0.1801
0.0108	1.1952	-0.1785
0.0142	1.1765	-0.1762
0.0219	1.1523	-0.1746
0.0210	1.1389	-0.1716
0.0201	1.1195	-0.1681
0.0222	1.1033	-0.1641
0.0248	1.0859	-0.1614
0.0257	1.0743	-0.1630
0.0244	1.0535	-0.1620
0.0211	1.0083	-0.1699
0.0189	0.9570	-0.1749
0.0218	0.9346	-0.1798
0.0263	0.9057	-0.1780
0.0300	0.8754	-0.1777
0.0319	0.8538	-0.1774
0.0334	0.8258	-0.1747
0.0347	0.7930	-0.1726
0.0332	0.7415	-0.1789
0.0307	0.6895	-0.1870
0.0318	0.6718	-0.1910
0.0341	0.6578	-0.1951
0.0348	0.6353	-0.1944
0.0343	0.6095	-0.1950
0.0362	0.5857	-0.1963
0.0380	0.5637	-0.1955
0.0433	0.5161	-0.1993
0.0422	0.4902	-0.2006
0.0409	0.4686	-0.2029
0.0408	0.4426	-0.2054
0.0380	0.4127	-0.2050
0.0369	0.3920	-0.2087
0.0352	0.3701	-0.2093
0.0337	0.3482	-0.2104
0.0361	0.3258	-0.2087
0.0357	0.2946	-0.2085
0.0402	0.2711	-0.2072
0.0403	0.2619	-0.2071
0.0417	0.2571	-0.2086
0.0434	0.2536	-0.2075
0.0422	0.2550	-0.2079
0.0432	0.2548	-0.2074
0.0413	0.2569	-0.2077
-0.0690	1.2239	-0.1929
-0.0679	1.2193	-0.1902
-0.0676	1.2192	-0.1919
-0.0671	1.2174	-0.1912
-0.0700	1.1980	-0.1894
-0.0702	1.1849	-0.1895
-0.0731	1.1690	-0.1884
-0.0753	1.1473	-0.1857
-0.0738	1.1266	-0.1812
-0.0739	1.1079	-0.1805
-0.0721	1.0895	-0.1781
-0.0662	1.0607	-0.1789
-0.0633	1.0264	-0.1814
-0.0652	1.0106	-0.1864
-0.0680	0.9893	-0.1902
-0.0699	0.9603	-0.1920
-0.0688	0.9361	-0.1956
-0.0662	0.9063	-0.1956
-0.0651	0.8711	-0.1955
-0.0674	0.8232	-0.1983
-0.0681	0.7645	-0.2024
-0.0672	0.7413	-0.2069
-0.0670	0.7188	-0.2099
-0.0686	0.6973	-0.2127
-0.0695	0.6740	-0.2144
-0.0702	0.6545	-0.2149
-0.0690	0.6300	-0.2143
-0.0663	0.5665	-0.2135
-0.0663	0.5142	-0.2160
-0.0643	0.4876	-0.2215
-0.0638	0.4455	-0.2222
-0.0660	0.4102	-0.2272
-0.0680	0.3842	-0.2289
-0.0725	0.3592	-0.2308
-0.0715	0.3346	-0.2307
-0.0682	0.3074	-0.2273
-0.0662	0.2988	-0.2289
-0.0644	0.2882	-0.2282
-0.0631	0.2778	-0.2269
-0.0647	0.2619	-0.2233
-0.0651	0.2531	-0.2224
-0.0648	0.2494	-0.2230
-0.0612	0.2490	-0.2209
-0.0648	0.2482	-0.2235
-0.1253	1.2010	-0.1799
-0.1261	1.2045	-0.1772
-0.1239	1.2007	-0.1801
-0.1256	1.1941	-0.1799
-0.1256	1.1853	-0.1802
-0.1250	1.1768	-0.1805
-0.1255	1.1667	-0.1798
-0.1251	1.1556	-0.1783
-0.1247	1.1409	-0.1783
-0.1281	1.1077	-0.1743
-0.1251	1.0698	-0.1727
-0.1229	1.0553	-0.1724
-0.1218	1.0393	-0.1776
-0.1213	1.0255	-0.1791
-0.1224	1.0065	-0.1805
-0.1241	0.9824	-0.1835
-0.1262	0.9592	-0.1862
-0.1279	0.9151	-0.1905
-0.1313	0.8635	-0.1883
-0.1332	0.8411	-0.1870
-0.1356	0.8139	-0.1867
-0.1348	0.7820	-0.1847
-0.1333	0.7548	-0.1845
-0.1332	0.7311	-0.1861
-0.1337	0.7123	-0.1900
-0.1313	0.6860	-0.2022
-0.1302	0.6527	-0.2039
-0.1311	0.6266	-0.2040
-0.1357	0.6000	-0.2004
-0.1371	0.5728	-0.1976
-0.1390	0.5401	-0.1956
-0.1408	0.5174	-0.1930
-0.1410	0.4987	-0.1949
-0.1408	0.4639	-0.1995
-0.1425	0.4222	-0.2039
-0.1413	0.4037	-0.2042
-0.1428	0.3912	-0.2067
-0.1415	0.3799	-0.2085
-0.1388	0.3730	-0.2087
-0.1410	0.3682	-0.2099
-0.1407	0.3584	-0.2105
-0.1427	0.3257	-0.2153
-0.1417	0.3048	-0.2127
-0.1426	0.2840	-0.2120
-0.1445	0.2627	-0.2125
-0.1449	0.2418	-0.2129
-0.1444	0.2417	-0.2139
-0.1424	0.2515	-0.2123
-0.1454	0.2437	-0.2144
-0.1431	0.2456	-0.2124
-0.1404	0.2699	-0.2147
-0.1392	0.2685	-0.2164
-0.1394	0.2683	-0.2178
-0.1383	0.2679	-0.2171
-0.1354	0.2681	-0.2206
-0.1326	0.2735	-0.2226
-0.1283	0.2682	-0.2230
-0.1238	0.2589	-0.2238
-0.1135	0.2626	-0.2267
-0.1066	0.2598	-0.2261
-0.1011	0.2610	-0.2259
-0.1039	0.2605	-0.2275
-0.0993	0.2592	-0.2279
-0.0854	0.2569	-0.2241
-0.0807	0.2554	-0.2224
-0.0784	0.2583	-0.2222
-0.0695	0.2540	-0.2211
-0.0666	0.2537	-0.2202
-0.0617	0.2541	-0.2181
-0.0622	0.2550	-0.2216
-0.0611	0.2526	-0.2194
-0.0608	0.2525	-0.2202
-0.0608	0.2526	-0.2191
-0.0613	0.2570	-0.2204
-0.0619	0.2588	-0.2190
-0.0467	0.2524	-0.2198
-0.0465	0.2493	-0.2201
-0.0450	0.2499	-0.2200
-0.0407	0.2530	-0.2203
-0.0238	0.2473	-0.2184
-0.0149	0.2490	-0.2173
-0.0076	0.2469	-0.2158
0.0001	0.2467	-0.2155
0.0089	0.2494	-0.2140
0.0173	0.2454	-0.2131
0.0277	0.2446	-0.2115
0.0439	0.2491	-0.2076
0.0613	0.2566	-0.2060
0.0728	0.2557	-0.2039
0.0842	0.2598	-0.2023
0.0934	0.2604	-0.2009
0.1032	0.2587	-0.1983
0.1118	0.2635	-0.1976
0.1156	0.2605	-0.1964
0.1128	0.2608	-0.1974
0.1133	0.2594	-0.1964
0.1125	0.2646	-0.1969
0.1136	0.2637	-0.1959
0.1285	0.2490	-0.1969
0.1276	0.2521	-0.1967
0.1284	0.2525	-0.1963
0.1320	0.2460	-0.1961
0.1375	0.2485	-0.1950
0.1483	0.2504	-0.1933
0.1751	0.2621	-0.1875
0.1755	0.2618	-0.1882
0.1773	0.2595	-0.1884
0.1805	0.2612	-0.1872
0.1824	0.2623	-0.1869
0.1865	0.2593	-0.1854
0.1857	0.2602	-0.1851
0.1869	0.2585	-0.1849
0.1858	0.2655	-0.1854
0.1878	0.2642	-0.1830
0.1887	0.2641	-0.1844
0.1866	0.2613	-0.1861
0.1869	0.2661	-0.1861
0.2008	0.2698	-0.1801
0.2180	0.2704	-0.1720
0.2297	0.2674	-0.1622
0.2254	0.2637	-0.1638
0.2253	0.2732	-0.1619
0.2238	0.2747	-0.1625
0.2248	0.2712	-0.1600
0.2262	0.2745	-0.1599
0.2260	0.2758	-0.1605
0.2277	0.2760	-0.1583
-0.1687	1.0483	0.1349
-0.1684	1.0500	0.1369
-0.1690	1.0461	0.1316
-0.1690	1.0380	0.1324
-0.1679	1.0294	0.1302
-0.1685	1.0265	0.1339
-0.1677	1.0181	0.1356
-0.1699	1.0136	0.1323
-0.1701	1.0052	0.1351
-0.1708	0.9998	0.1343
-0.1777	0.9830	0.1333
-0.1798	0.9524	0.1286
-0.1807	0.9333	0.1281
-0.1798	0.9124	0.1217
-0.1789	0.8920	0.1214
-0.1781	0.8720	0.1237
-0.1755	0.8489	0.1267
-0.1755	0.8267	0.1259
-0.1742	0.7842	0.1259
-0.1776	0.7438	0.1250
-0.1816	0.7265	0.1216
-0.1802	0.7033	0.1203
-0.1784	0.6759	0.1222
-0.1763	0.6533	0.1237
-0.1777	0.6331	0.1295
-0.1774	0.6095	0.1327
-0.1819	0.5638	0.1304
-0.1882	0.5385	0.1283
-0.1893	0.5257	0.1275
-0.1896	0.5115	0.1274
-0.1902	0.5007	0.1259
-0.1878	0.4845	0.1274
-0.1871	0.4669	0.1250
-0.1863	0.4495	0.1269
-0.1851	0.3993	0.1338
-0.1834	0.3682	0.1397
-0.1812	0.3398	0.1449
-0.1828	0.3277	0.1434
-0.1830	0.3185	0.1433
-0.1830	0.3099	0.1419
-0.1833	0.2978	0.1439
-0.1824	0.2875	0.1458
-0.1817	0.2705	0.1449
-0.1808	0.2632	0.1468
-0.1809	0.2600	0.1460
-0.1822	0.2676	0.1456
-0.1815	0.2651	0.1471
-0.1736	1.0431	0.1105
-0.1732	1.0446	0.1075
-0.1744	1.0481	0.1114
-0.1731	1.0357	0.1132
-0.1732	1.0304	0.1138
-0.1756	1.0237	0.1125
-0.1766	1.0185	0.1154
-0.1789	1.0084	0.1133
-0.1794	0.9971	0.1094
-0.1818	0.9815	0.1065
-0.1851	0.9526	0.0961
-0.1879	0.9232	0.0965
-0.1874	0.9084	0.0959
-0.1824	0.8799	0.0961
-0.1818	0.8609	0.0952
-0.1824	0.8477	0.0966
-0.1814	0.8286	0.0938
-0.1810	0.8066	0.0922
-0.1826	0.7673	0.0883
-0.1859	0.7371	0.0843
-0.1886	0.7243	0.0773
-0.1913	0.7144	0.0788
-0.1908	0.6976	0.0784
-0.1921	0.6830	0.0768
-0.1926	0.6676	0.0778
-0.1954	0.6478	0.0767
-0.1955	0.5937	0.0734
-0.1965	0.5424	0.0751
-0.1976	0.5200	0.0749
-0.1963	0.4994	0.0776
-0.1973	0.4882	0.0770
-0.1979	0.4795	0.0777
-0.1989	0.4678	0.0778
-0.1985	0.4553	0.0804
-0.1982	0.4255	0.0844
-0.1991	0.4112	0.0832
-0.1978	0.3928	0.0850
-0.1980	0.3745	0.0858
-0.1986	0.3587	0.0847
-0.1975	0.3396	0.0859
-0.1983	0.3300	0.0861
-0.1989	0.3208	0.0899
-0.1996	0.3087	0.0888
-0.2019	0.2909	0.0893
-0.2025	0.2698	0.0887
-0.2027	0.2651	0.0892
-0.2025	0.2728	0.0862
-0.2038	0.2703	0.0868
-0.2030	0.2688	0.0878
-0.2023	0.2696	0.0861
-0.1623	1.1935	0.0144
-0.1602	1.1930	0.0082
-0.1596	1.1847	0.0046
-0.1668	1.1802	0.0010
-0.1671	1.1705	0.0007
-0.1676	1.1572	-0.0007
-0.1691	1.1486	-0.0009
-0.1720	1.1383	-0.0027
-0.1739	1.1264	-0.0043
-0.1734	1.0878	-0.0038
-0.1717	1.0423	0.0039
-0.1748	1.0317	0.0092
-0.1800	1.0231	0.0140
-0.1790	1.0048	0.0139
-0.1799	0.9878	0.0117
-0.1828	0.9735	0.0108
-0.1842	0.9525	0.0059
-0.1826	0.8975	0.0045
-0.1830	0.8461	0.0096
-0.1860	0.8300	0.0136
-0.1841	0.8065	0.0117
-0.1850	0.7765	0.0090
-0.1844	0.7501	0.0064
-0.1860	0.7196	0.0044
-0.1883	0.6962	0.0013
-0.1946	0.6649	-0.0026
-0.1972	0.6324	-0.0006
-0.1985	0.6175	0.0035
-0.1963	0.5898	0.0148
-0.1967	0.5626	0.0178
-0.1955	0.5358	0.0208
-0.1971	0.5103	0.0207
-0.1976	0.4885	0.0230
-0.1981	0.4529	0.0243
-0.1979	0.4331	0.0224
-0.1965	0.4111	0.0192
-0.1969	0.3936	0.0162
-0.1961	0.3723	0.0156
-0.1948	0.3502	0.0148
-0.1952	0.3291	0.0118
-0.1953	0.3129	0.0105
-0.1960	0.2994	0.0085
-0.1962	0.2799	0.0082
-0.1953	0.2665	0.0072
-0.1951	0.2660	0.0061
-0.1951	0.2599	0.0050
-0.1958	0.2587	0.0073
-0.1959	0.2596	0.0055
-0.1956	0.2514	0.0047
-0.1960	0.2569	0.0065
-0.1957	0.2583	0.0084
-0.1446	1.1997	-0.0820
-0.1473	1.1933	-0.0796
-0.1474	1.1857	-0.0815
-0.1472	1.1711	-0.0835
-0.1504	1.1641	-0.0852
-0.1504	1.1603	-0.0853
-0.1490	1.1463	-0.0828
-0.1571	1.1361	-0.0848
-0.1588	1.0959	-0.0845
-0.1588	1.0493	-0.0806
-0.1492	1.0318	-0.0648
-0.1528	1.0131	-0.0699
-0.1542	0.9929	-0.0744
-0.1560	0.9723	-0.0788
-0.1603	0.9542	-0.0862
-0.1642	0.9392	-0.0843
-0.1598	0.8702	-0.0900
-0.1584	0.8075	-0.0918
-0.1613	0.7795	-0.0979
-0.1620	0.7456	-0.1036
-0.1620	0.7114	-0.1060
-0.1649	0.6793	-0.1059
-0.1665	0.6528	-0.1059
-0.1689	0.6359	-0.1076
-0.1753	0.5908	-0.1046
-0.1773	0.5644	-0.1030
-0.1790	0.5393	-0.1001
-0.1788	0.5112	-0.1027
-0.1801	0.4896	-0.1027
-0.1815	0.4723	-0.1015
-0.1823	0.4548	-0.1016
-0.1799	0.4260	-0.1053
-0.1793	0.3996	-0.1067
-0.1780	0.3506	-0.1061
-0.1781	0.3334	-0.1075
-0.1790	0.3230	-0.1086
-0.1792	0.3050	-0.1089
-0.1788	0.2943	-0.1096
-0.1798	0.2861	-0.1107
-0.1784	0.2758	-0.1101
-0.1789	0.2699	-0.1124
-0.1783	0.2628	-0.1103
-0.1779	0.2594	-0.1111
-0.1782	0.2635	-0.1089
-0.1784	0.2599	-0.1092
-0.1784	0.2601	-0.1098
-0.1295	1.2180	-0.1643
-0.1306	1.2191	-0.1643
-0.1278	1.2126	-0.1641
-0.1282	1.2092	-0.1644
-0.1314	1.2009	-0.1663
-0.1329	1.1962	-0.1667
-0.1328	1.1869	-0.1660
-0.1374	1.1557	-0.1681
-0.1401	1.1249	-0.1684
-0.1391	1.1077	-0.1683
-0.1428	1.0950	-0.1632
-0.1461	1.0782	-0.1647
-0.1459	1.0537	-0.1644
-0.1308	1.0243	-0.1507
-0.1312	1.0046	-0.1482
-0.1346	0.9616	-0.1571
-0.1433	0.9411	-0.1465
-0.1416	0.9185	-0.1485
-0.1407	0.8991	-0.1501
-0.1426	0.8803	-0.1520
-0.1444	0.8634	-0.1499
-0.1450	0.8408	-0.1537
-0.1472	0.8190	-0.1545
-0.1500	0.7763	-0.1581
-0.1536	0.7288	-0.1642
-0.1530	0.7053	-0.1627
-0.1506	0.6728	-0.1697
-0.1524	0.6519	-0.1718
-0.1537	0.6306	-0.1755
-0.1553	0.6100	-0.1756
-0.1574	0.5900	-0.1770
-0.1600	0.5603	-0.1730
-0.1602	0.5395	-0.1731
-0.1617	0.5157	-0.1756
-0.1623	0.4903	-0.1746
-0.1634	0.4769	-0.1715
-0.1653	0.4635	-0.1731
-0.1660	0.4541	-0.1708
-0.1655	0.4318	-0.1699
-0.1656	0.4071	-0.1716
-0.1611	0.3817	-0.1746
-0.1605	0.3547	-0.1795
-0.1598	0.3393	-0.1804
-0.1592	0.3179	-0.1852
-0.1587	0.3041	-0.1888
-0.1588	0.2916	-0.1930
-0.1568	0.2763	-0.1932
-0.1577	0.2680	-0.1970
-0.1566	0.2741	-0.1946
-0.1565	0.2741	-0.1940
-0.1575	0.2738	-0.1976
-0.1567	0.2754	-0.1926
-0.1149	1.2210	-0.1708
-0.1172	1.2227	-0.1703
-0.1156	1.2203	-0.1677
-0.1157	1.2157	-0.1711
-0.1176	1.2069	-0.1739
-0.1190	1.1871	-0.1755
-0.1177	1.1532	-0.1745
-0.1161	1.1300	-0.1746
-0.1126	1.1022	-0.1732
-0.1125	1.0816	-0.1752
-0.1232	1.0583	-0.1844
-0.1260	1.0403	-0.1868
-0.1264	1.0237	-0.1832
-0.1147	1.0009	-0.1734
-0.1165	0.9611	-0.1723
-0.1188	0.9429	-0.1770
-0.1215	0.9169	-0.1838
-0.1233	0.8952	-0.1888
-0.1237	0.8750	-0.1901
-0.1269	0.8532	-0.1872
-0.1271	0.8291	-0.1856
-0.1299	0.7935	-0.1935
-0.1274	0.7317	-0.1951
-0.1265	0.6993	-0.1996
-0.1235	0.6709	-0.2023
-0.1229	0.6469	-0.2040
-0.1226	0.6253	-0.2069
-0.1225	0.5993	-0.2089
-0.1244	0.5759	-0.2111
-0.1302	0.5269	-0.2102
-0.1345	0.5103	-0.2118
-0.1381	0.4956	-0.2070
-0.1423	0.4852	-0.2057
-0.1438	0.4679	-0.2040
-0.1457	0.4499	-0.1995
-0.1463	0.4272	-0.1948
-0.1479	0.4142	-0.1951
-0.1472	0.4061	-0.1939
-0.1494	0.4067	-0.1949
-0.1488	0.4003	-0.1900
-0.1475	0.3926	-0.1958
-0.1482	0.3829	-0.1946
-0.1482	0.3705	-0.1934
-0.1483	0.3579	-0.1952
-0.1482	0.3510	-0.1979
-0.1495	0.3442	-0.1999
-0.1506	0.3198	-0.2057
-0.1510	0.2995	-0.2051
-0.1511	0.2936	-0.2070
-0.1518	0.2852	-0.2091
-0.1522	0.2753	-0.2087
-0.1525	0.2772	-0.2091
-0.1520	0.2794	-0.2110
-0.1523	0.2763	-0.2086
-0.1842	0.2540	0.1495
-0.1847	0.2548	0.1468
-0.1853	0.2553	0.1471
-0.1903	0.2591	0.1439
-0.1927	0.2570	0.1400
-0.1947	0.2559	0.1366
-0.1981	0.2566	0.1334
-0.2010	0.2585	0.1288
-0.2017	0.2574	0.1230
-0.2023	0.2536	0.1167
-0.2037	0.2548	0.1149
-0.2038	0.2552	0.1096
-0.2038	0.2577	0.1007
-0.2015	0.2546	0.0894
-0.2027	0.2593	0.0875
-0.2021	0.2596	0.0823
-0.2004	0.2577	0.0760
-0.2004	0.2564	0.0713
-0.1996	0.2544	0.0646
-0.1979	0.2554	0.0574
-0.1961	0.2529	0.0413
-0.1963	0.2537	0.0288
-0.1956	0.2534	0.0217
-0.1941	0.2552	0.0062
-0.1928	0.2577	-0.0067
-0.1907	0.2573	-0.0187
-0.1901	0.2552	-0.0287
-0.1883	0.2581	-0.0424
-0.1855	0.2562	-0.0706
-0.1820	0.2552	-0.0915
-0.1792	0.2517	-0.1036
-0.1765	0.2493	-0.1140
-0.1756	0.2535	-0.1255
-0.1724	0.2566	-0.1386
-0.1703	0.2600	-0.1512
-0.1683	0.2595	-0.1617
-0.1617	0.2648	-0.1893
-0.1489	0.2746	-0.2182
-0.1450	0.2761	-0.2244
-0.1503	0.2728	-0.2151
-0.1501	0.2714	-0.2144
-0.1468	0.2734	-0.2221
-0.1462	0.2727	-0.2195
-0.1479	0.2702	-0.2144
-0.1755	1.2180	0.0662
-0.1717	1.2189	0.0616
-0.1723	1.2228	0.0599
-0.1757	1.2274	0.0601
-0.1732	1.2257	0.0558
-0.1735	1.2256	0.0490
-0.1738	1.2195	0.0393
-0.1669	1.2118	0.0256
-0.1669	1.2139	0.0152
-0.1670	1.2140	0.0116
-0.1634	1.2085	0.0083
-0.1619	1.2086	-0.0023
-0.1605	1.2077	-0.0098
-0.1568	1.2066	-0.0209
-0.1542	1.2163	-0.0490
-0.1513	1.2149	-0.0675
-0.1487	1.2145	-0.0817
-0.1463	1.2146	-0.0895
-0.1459	1.2138	-0.0997
-0.1438	1.2187	-0.1141
-0.1439	1.2207	-0.1259
-0.1419	1.2191	-0.1326
-0.1415	1.2165	-0.1391
-0.1382	1.2156	-0.1466
-0.1410	1.2181	-0.1432
-0.1415	1.2145	-0.1427
-0.1398	1.2173	-0.1443
-0.1539	1.2073	-0.1378
-0.1546	1.2081	-0.1378
-0.1532	1.2050	-0.1400
-0.1523	1.2038	-0.1466
-0.1515	1.2044	-0.1523
-0.1475	1.2017	-0.1576
-0.1458	1.2018	-0.1650
-0.1448	1.2045	-0.1719
-0.1298	1.2090	-0.1867
-0.1260	1.2008	-0.1866
-0.1255	1.1962	-0.1864
-0.1190	1.1994	-0.1905
-0.1079	1.2049	-0.1967
-0.0981	1.2001	-0.1941
-0.0992	1.2012	-0.1941
-0.1037	1.2045	-0.1947
-0.1021	1.2076	-0.1942
