0.1305	0.2043	0.2210
0.1300	0.2084	0.2215
0.1274	0.2090	0.2195
0.1239	0.2053	0.2204
0.1174	0.2042	0.2184
0.1118	0.2065	0.2169
0.1067	0.2054	0.2164
0.0947	0.2096	0.2160
0.0833	0.2091	0.2138
0.0759	0.2074	0.2128
0.0695	0.2081	0.2116
0.0638	0.2120	0.2113
0.0574	0.2101	0.2101
0.0538	0.2135	0.2102
0.0478	0.2157	0.2072
0.0397	0.2119	0.2084
0.0326	0.2128	0.2079
0.0264	0.2132	0.2061
0.0205	0.2130	0.2051
0.0148	0.2120	0.2047
0.0077	0.2161	0.2034
0.0041	0.2107	0.2029
-0.0005	0.2107	0.2012
-0.0042	0.2111	0.2022
-0.0169	0.2110	0.1998
-0.0225	0.2128	0.1999
-0.0326	0.2112	0.1976
-0.0365	0.2028	0.1976
-0.0402	0.2023	0.1955
-0.0397	0.2024	0.1957
-0.0432	0.2029	0.1962
-0.0406	0.2010	0.1956
-0.0431	0.2039	0.1964
-0.0703	0.1969	0.1929
-0.0728	0.1974	0.1921
-0.0711	0.1983	0.1932
-0.0750	0.2008	0.1920
-0.0765	0.2000	0.1911
-0.0769	0.1983	0.1908
-0.0791	0.1995	0.1912
-0.0827	0.1964	0.1913
-0.0907	0.1999	0.1904
-0.1057	0.1992	0.1872
-0.1137	0.2006	0.1852
-0.1212	0.2031	0.1815
-0.1240	0.1963	0.1818
-0.1325	0.1985	0.1802
-0.1410	0.2016	0.1792
-0.1444	0.2039	0.1811
-0.1609	0.2072	0.1814
-0.1685	0.2199	0.1821
-0.1682	0.2257	0.1814
-0.1745	0.2289	0.1786
-0.1706	0.2266	0.1822
-0.1712	0.2172	0.1841
-0.1708	0.2150	0.1823
-0.1715	0.2120	0.1811
-0.1717	0.2142	0.1819
-0.1700	0.2119	0.1817
-0.1725	0.2141	0.1812
0.1417	0.2477	0.2236
0.1412	0.2477	0.2222
0.1424	0.2476	0.2252
0.1454	0.2500	0.2266
0.1481	0.2520	0.2238
0.1525	0.2545	0.2205
0.1568	0.2607	0.2136
0.1585	0.2557	0.2229
0.1583	0.2560	0.2288
0.1589	0.2568	0.2346
0.1576	0.2561	0.2334
0.1573	0.2558	0.2348
0.1577	0.2567	0.2347
0.1564	0.2538	0.2348
0.1551	0.2521	0.2319
0.1553	0.2514	0.2304
0.1546	0.2548	0.2273
0.1554	0.2584	0.2291
0.1552	0.2592	0.2311
0.1574	0.2583	0.2337
0.1606	0.2642	0.2371
0.1623	0.2610	0.2423
0.1626	0.2594	0.2435
0.1659	0.2492	0.2405
0.1655	0.2336	0.2341
0.1653	0.2232	0.2387
0.1655	0.2178	0.2402
0.1661	0.2148	0.2392
0.1667	0.2128	0.2402
0.1675	0.2135	0.2383
0.1680	0.2149	0.2345
0.1692	0.2180	0.2356
0.1703	0.2205	0.2270
0.1715	0.2284	0.2266
0.1716	0.2406	0.2293
0.1705	0.2532	0.2261
0.1707	0.2614	0.2239
0.1696	0.2623	0.2246
0.1679	0.2626	0.2260
0.1648	0.2594	0.2251
0.1626	0.2602	0.2221
0.1594	0.2612	0.2250
0.1594	0.2590	0.2316
0.1579	0.2560	0.2327
0.1558	0.2556	0.2296
0.1553	0.2581	0.2231
0.1558	0.2570	0.2231
0.1545	0.2591	0.2280
0.1531	0.2559	0.2286
0.1521	0.2527	0.2231
0.1520	0.2536	0.2278
0.1520	0.2541	0.2250
0.1518	0.2560	0.2230
0.1513	0.2560	0.2249
0.1499	0.2524	0.2258
0.1492	0.2545	0.2253
0.1475	0.2550	0.2245
0.1447	0.2571	0.2246
0.1441	0.2561	0.2243
0.1424	0.2586	0.2239
0.1429	0.2589	0.2214
0.1426	0.2563	0.2227
0.1431	0.2560	0.2266
0.1428	0.2586	0.2252
0.1437	0.2573	0.2274
0.1460	0.2534	0.2332
0.1480	0.2501	0.2346
0.1485	0.2495	0.2296
0.1495	0.2541	0.2236
0.1521	0.2520	0.2236
0.1528	0.2518	0.2289
0.1527	0.2508	0.2274
0.1534	0.2498	0.2239
0.1542	0.2452	0.2247
0.1541	0.2464	0.2250
0.1538	0.2415	0.2255
0.1564	0.2414	0.2208
0.1587	0.2463	0.2253
0.1581	0.2437	0.2329
0.1568	0.2430	0.2311
0.1551	0.2477	0.2211
0.1541	0.2494	0.2261
0.1560	0.2535	0.2252
0.1586	0.2505	0.2208
0.1611	0.2494	0.2229
0.1635	0.2524	0.2225
0.1664	0.2526	0.2247
0.1692	0.2528	0.2218
0.1750	0.2546	0.2197
0.1795	0.2555	0.2180
0.1809	0.2553	0.2171
0.1835	0.2550	0.2139
0.1850	0.2563	0.2152
0.1870	0.2564	0.2133
0.1892	0.2559	0.2132
0.1909	0.2557	0.2096
0.1955	0.2554	0.2083
0.1967	0.2551	0.2071
0.1994	0.2543	0.2091
0.2003	0.2533	0.2051
0.2035	0.2526	0.2014
0.2053	0.2545	0.2011
0.2067	0.2542	0.1977
0.2090	0.2515	0.1934
0.2112	0.2525	0.1939
0.2155	0.2510	0.1873
0.2186	0.2527	0.1840
0.2191	0.2499	0.1810
0.2205	0.2495	0.1808
0.2208	0.2493	0.1796
0.2231	0.2490	0.1762
0.2250	0.2478	0.1715
0.2260	0.2513	0.1670
0.2292	0.2481	0.1628
0.2304	0.2459	0.1569
0.2320	0.2485	0.1509
0.2324	0.2462	0.1413
0.2336	0.2439	0.1342
0.2349	0.2477	0.1254
0.2348	0.2475	0.1225
0.2341	0.2471	0.1256
0.2355	0.2494	0.1243
0.2361	0.2466	0.1112
0.2374	0.2463	0.1048
0.2378	0.2492	0.0990
0.2391	0.2518	0.0943
0.2396	0.2487	0.0817
0.2414	0.2502	0.0724
0.2415	0.2506	0.0664
0.2419	0.2548	0.0645
0.2421	0.2569	0.0553
0.2426	0.2566	0.0525
0.2433	0.2577	0.0489
0.2433	0.2578	0.0448
0.2435	0.2555	0.0392
0.2449	0.2547	0.0308
0.2448	0.2568	0.0261
0.2471	0.2572	0.0167
0.2473	0.2498	0.0113
0.2480	0.2551	0.0087
0.2483	0.2574	0.0054
0.2493	0.2571	0.0009
0.2488	0.2571	-0.0057
0.2497	0.2523	-0.0086
0.2507	0.2567	-0.0096
0.2512	0.2559	-0.0166
0.2520	0.2546	-0.0234
0.2524	0.2548	-0.0289
0.2534	0.2546	-0.0354
0.2547	0.2530	-0.0458
0.2573	0.2526	-0.0558
0.2584	0.2544	-0.0677
0.2595	0.2562	-0.0722
0.2584	0.2543	-0.0660
0.2575	0.2550	-0.0642
0.2577	0.2581	-0.0682
0.2579	0.2597	-0.0720
0.2585	0.2623	-0.0738
0.2591	0.2632	-0.0792
0.2597	0.2612	-0.0803
0.2608	0.2609	-0.0877
0.2609	0.2636	-0.0916
0.2634	0.2626	-0.1001
0.2643	0.2648	-0.1064
0.2647	0.2634	-0.1146
0.2660	0.2655	-0.1231
0.2670	0.2669	-0.1330
0.2675	0.2689	-0.1404
0.2679	0.2721	-0.1414
0.2671	0.2703	-0.1413
0.2696	0.2723	-0.1489
0.2700	0.2732	-0.1591
0.2721	0.2730	-0.1669
0.2724	0.2746	-0.1761
0.2729	0.2751	-0.1850
0.2733	0.2737	-0.1810
0.2733	0.2770	-0.1814
0.2739	0.2759	-0.1872
0.2736	0.2818	-0.1919
0.2738	0.2785	-0.1938
0.2742	0.2829	-0.1974
0.2741	0.2806	-0.2019
0.2743	0.2822	-0.2049
0.2749	0.2842	-0.2090
0.2747	0.2811	-0.2134
0.2753	0.2797	-0.2156
0.2767	0.2806	-0.2142
0.2768	0.2809	-0.2152
0.2764	0.2800	-0.2144
0.2760	0.2810	-0.2155
0.2756	0.2797	-0.2138
0.2622	0.2796	-0.2441
0.2627	0.2811	-0.2435
0.2630	0.2798	-0.2406
0.2645	0.2820	-0.2407
0.2659	0.2815	-0.2389
0.2691	0.2807	-0.2331
0.2712	0.2791	-0.2292
0.2728	0.2794	-0.2292
0.2746	0.2789	-0.2273
0.2744	0.2799	-0.2241
0.2751	0.2815	-0.2232
0.2753	0.2816	-0.2222
0.2748	0.2791	-0.2205
0.2757	0.2782	-0.2203
0.2748	0.2787	-0.2231
0.2755	0.2796	-0.2210
0.1410	0.2210	0.2209
0.1419	0.2250	0.2234
0.1405	0.2237	0.2240
0.1430	0.2245	0.2232
0.1472	0.2220	0.2218
0.1545	0.2242	0.2212
0.1583	0.2240	0.2226
0.1624	0.2253	0.2220
0.1676	0.2257	0.2199
0.1720	0.2294	0.2214
0.1760	0.2278	0.2203
0.1808	0.2212	0.2183
0.1925	0.2212	0.2036
0.1996	0.2307	0.2030
0.2024	0.2247	0.2047
0.2043	0.2291	0.2045
0.2052	0.2312	0.2029
0.2092	0.2341	0.2031
0.2100	0.2375	0.2013
0.2107	0.2385	0.1982
0.2151	0.2327	0.1947
0.2200	0.2320	0.1896
0.2233	0.2323	0.1834
0.2256	0.2336	0.1811
0.2266	0.2343	0.1755
0.2284	0.2333	0.1728
0.2300	0.2373	0.1716
0.2301	0.2369	0.1653
0.2327	0.2369	0.1558
0.2342	0.2357	0.1443
0.2341	0.2345	0.1416
0.2340	0.2376	0.1414
0.2345	0.2402	0.1390
0.2356	0.2393	0.1319
0.2357	0.2392	0.1274
0.2357	0.2343	0.1217
0.2362	0.2372	0.1255
0.2365	0.2366	0.1243
0.2363	0.2407	0.1218
0.2363	0.2391	0.1235
0.2393	0.2220	0.1412
0.2391	0.2223	0.1368
0.2399	0.2286	0.1319
0.2405	0.2224	0.1247
0.2401	0.2226	0.1227
0.2391	0.2201	0.1192
0.2399	0.2219	0.1172
0.2414	0.2243	0.1163
0.2405	0.2223	0.1112
0.2417	0.2221	0.1103
0.2421	0.2236	0.0986
0.2424	0.2255	0.0895
0.2427	0.2253	0.0852
0.2433	0.2241	0.0796
0.2430	0.2219	0.0735
0.2453	0.2228	0.0694
0.2457	0.2222	0.0661
0.2466	0.2188	0.0601
0.2468	0.2172	0.0459
0.2489	0.2214	0.0315
0.2493	0.2235	0.0225
0.2485	0.2209	0.0159
0.2491	0.2187	0.0089
0.2504	0.2181	0.0079
0.2502	0.2222	0.0056
0.2507	0.2218	0.0034
0.2504	0.2184	-0.0086
0.2515	0.2171	-0.0197
0.2526	0.2165	-0.0264
0.2565	0.2178	-0.0326
0.2569	0.2190	-0.0401
0.2579	0.2165	-0.0462
0.2586	0.2155	-0.0504
0.2584	0.2148	-0.0565
0.2613	0.2201	-0.0691
0.2608	0.2180	-0.0780
0.2627	0.2180	-0.0846
0.2620	0.2185	-0.0937
0.2636	0.2204	-0.1014
0.2653	0.2181	-0.1073
0.2649	0.2189	-0.1134
0.2652	0.2190	-0.1188
0.2654	0.2163	-0.1251
0.2692	0.2133	-0.1338
0.2692	0.2100	-0.1480
0.2698	0.2115	-0.1529
0.2688	0.2067	-0.1563
0.2699	0.2070	-0.1613
0.2698	0.2055	-0.1675
0.2697	0.2051	-0.1729
0.2703	0.2065	-0.1745
0.2712	0.2047	-0.1798
0.2709	0.2086	-0.1847
0.2722	0.2077	-0.1840
0.2717	0.2056	-0.1881
0.2717	0.2036	-0.1889
0.2717	0.2068	-0.1921
0.2721	0.2069	-0.1942
0.2712	0.2029	-0.1975
0.2728	0.2070	-0.1982
0.2716	0.2061	-0.2040
0.2729	0.2099	-0.2037
0.2724	0.2087	-0.2076
0.2727	0.2072	-0.2085
0.2731	0.2054	-0.2083
0.2730	0.2074	-0.2080
0.2727	0.2102	-0.2092
0.2736	0.2137	-0.2070
0.2771	0.2586	-0.2175
0.2769	0.2571	-0.2173
0.2762	0.2580	-0.2214
0.2752	0.2583	-0.2245
0.2741	0.2579	-0.2255
0.2729	0.2573	-0.2287
0.2693	0.2553	-0.2327
0.2653	0.2560	-0.2352
0.2614	0.2539	-0.2394
0.2510	0.2591	-0.2414
0.2522	0.2617	-0.2384
0.2516	0.2601	-0.2391
0.2504	0.2585	-0.2401
0.2505	0.2577	-0.2396
0.2515	0.2586	-0.2402
0.2511	0.2583	-0.2397
0.2509	0.2568	-0.2399
0.2509	0.2621	-0.2418
0.2508	0.2593	-0.2413
0.2507	0.2614	-0.2418
0.2508	0.2603	-0.2408
0.2516	0.2616	-0.2407
0.2523	0.2611	-0.2414
0.2519	0.2590	-0.2403
0.2520	0.2607	-0.2410
0.2529	0.2595	-0.2413
0.2524	0.2586	-0.2413
0.2755	0.2096	-0.2084
0.2766	0.2127	-0.2106
0.2762	0.2090	-0.2098
0.2751	0.2101	-0.2123
0.2746	0.2096	-0.2148
0.2758	0.2077	-0.2155
0.2754	0.2060	-0.2198
0.2741	0.2075	-0.2219
0.2721	0.2058	-0.2240
0.2709	0.2081	-0.2253
0.2709	0.2074	-0.2243
0.2695	0.2093	-0.2286
0.2666	0.2116	-0.2313
0.2622	0.2078	-0.2323
0.2574	0.2103	-0.2347
0.2502	0.2080	-0.2371
0.2389	0.2065	-0.2365
0.2313	0.2088	-0.2362
0.2298	0.2140	-0.2349
0.2295	0.2133	-0.2334
0.2272	0.2114	-0.2331
0.2252	0.2110	-0.2324
0.2238	0.2089	-0.2323
0.2247	0.2070	-0.2323
0.2256	0.2106	-0.2332
0.2255	0.2101	-0.2332
0.2265	0.2093	-0.2322
0.2691	0.2135	-0.2185
0.2693	0.2108	-0.2213
0.2680	0.2111	-0.2218
0.2659	0.2127	-0.2234
0.2616	0.2141	-0.2245
0.2589	0.2138	-0.2269
0.2539	0.2149	-0.2275
0.2483	0.2132	-0.2265
0.2403	0.2128	-0.2271
0.2356	0.2116	-0.2277
0.2258	0.2093	-0.2284
0.2147	0.2078	-0.2307
0.2117	0.2062	-0.2321
0.2062	0.2077	-0.2346
0.2032	0.2046	-0.2359
0.1973	0.2049	-0.2361
0.1910	0.2044	-0.2354
0.1847	0.2038	-0.2369
0.1745	0.2078	-0.2371
0.1676	0.2042	-0.2367
0.1636	0.2044	-0.2376
0.1578	0.2043	-0.2395
0.1523	0.2091	-0.2415
0.1489	0.2076	-0.2417
0.1453	0.2053	-0.2423
0.1389	0.2074	-0.2425
0.1251	0.2133	-0.2441
0.1117	0.2154	-0.2430
0.1043	0.2170	-0.2451
0.1000	0.2137	-0.2447
0.0949	0.2162	-0.2482
0.0900	0.2180	-0.2485
0.0851	0.2178	-0.2505
0.0802	0.2184	-0.2504
0.0697	0.2204	-0.2530
0.0562	0.2213	-0.2522
0.0490	0.2229	-0.2541
0.0427	0.2239	-0.2555
0.0357	0.2229	-0.2546
0.0289	0.2241	-0.2562
0.0211	0.2225	-0.2563
0.0142	0.2225	-0.2573
0.0013	0.2256	-0.2587
-0.0086	0.2290	-0.2632
-0.0147	0.2293	-0.2648
-0.0203	0.2319	-0.2648
-0.0292	0.2294	-0.2652
-0.0328	0.2294	-0.2678
-0.0399	0.2296	-0.2687
-0.0508	0.2318	-0.2693
-0.0631	0.2340	-0.2732
-0.0763	0.2350	-0.2757
-0.0851	0.2365	-0.2758
-0.0949	0.2360	-0.2780
-0.1029	0.2348	-0.2778
-0.1119	0.2337	-0.2798
-0.1168	0.2352	-0.2799
-0.1249	0.2324	-0.2803
-0.1414	0.2260	-0.2816
-0.1553	0.2242	-0.2816
-0.1620	0.2242	-0.2825
-0.1682	0.2227	-0.2812
-0.1709	0.2230	-0.2819
-0.1748	0.2228	-0.2826
-0.1758	0.2219	-0.2815
-0.1762	0.2219	-0.2822
-0.1777	0.2214	-0.2833
-0.1792	0.2229	-0.2843
-0.1796	0.2226	-0.2840
-0.1807	0.2219	-0.2844
-0.1808	0.2218	-0.2834
-0.1808	0.2223	-0.2847
0.2651	0.2379	-0.2300
0.2616	0.2381	-0.2306
0.2541	0.2393	-0.2313
0.2466	0.2424	-0.2349
0.2365	0.2406	-0.2336
0.2246	0.2423	-0.2367
0.2105	0.2426	-0.2375
0.2011	0.2443	-0.2401
0.1747	0.2384	-0.2406
0.1440	0.2365	-0.2442
0.1305	0.2342	-0.2454
0.1160	0.2355	-0.2478
0.1012	0.2366	-0.2505
0.0829	0.2386	-0.2528
0.0628	0.2417	-0.2540
0.0425	0.2429	-0.2559
0.0031	0.2472	-0.2617
-0.0360	0.2511	-0.2653
-0.0537	0.2557	-0.2675
-0.0685	0.2543	-0.2699
-0.0842	0.2560	-0.2711
-0.0971	0.2551	-0.2729
-0.1084	0.2549	-0.2739
-0.1165	0.2573	-0.2760
-0.1309	0.2506	-0.2765
-0.1407	0.2499	-0.2789
-0.1458	0.2488	-0.2804
-0.1520	0.2467	-0.2811
-0.1586	0.2460	-0.2805
-0.1619	0.2436	-0.2811
-0.1666	0.2449	-0.2823
-0.1671	0.2456	-0.2828
-0.1723	0.2503	-0.2841
-0.1769	0.2452	-0.2852
-0.1797	0.2487	-0.2856
-0.1816	0.2441	-0.2858
-0.1832	0.2447	-0.2845
0.2709	0.2746	-0.2338
0.2661	0.2692	-0.2356
0.2679	0.2726	-0.2386
0.2652	0.2748	-0.2387
0.2624	0.2728	-0.2398
0.2575	0.2741	-0.2433
0.2489	0.2719	-0.2432
0.2466	0.2730	-0.2465
0.2443	0.2732	-0.2493
0.2405	0.2671	-0.2500
0.2285	0.2661	-0.2503
0.2092	0.2655	-0.2496
0.2008	0.2634	-0.2489
0.1992	0.2642	-0.2525
0.1935	0.2659	-0.2510
0.1884	0.2679	-0.2517
0.1813	0.2638	-0.2520
0.1733	0.2599	-0.2531
0.1616	0.2603	-0.2553
0.1448	0.2598	-0.2573
0.1354	0.2604	-0.2582
0.1241	0.2602	-0.2581
0.1159	0.2614	-0.2605
0.1047	0.2640	-0.2622
0.0967	0.2644	-0.2631
0.0853	0.2650	-0.2641
0.0679	0.2643	-0.2664
0.0480	0.2630	-0.2689
0.0381	0.2656	-0.2710
0.0278	0.2664	-0.2724
0.0177	0.2696	-0.2753
0.0075	0.2715	-0.2764
-0.0034	0.2725	-0.2785
-0.0174	0.2730	-0.2790
-0.0383	0.2713	-0.2800
-0.0519	0.2729	-0.2833
-0.0625	0.2720	-0.2838
-0.0727	0.2725	-0.2843
-0.0838	0.2735	-0.2859
-0.0937	0.2780	-0.2876
-0.1018	0.2765	-0.2883
-0.1111	0.2776	-0.2898
-0.1208	0.2754	-0.2905
-0.1278	0.2770	-0.2916
-0.1341	0.2765	-0.2933
-0.1400	0.2723	-0.2929
-0.1478	0.2722	-0.2934
-0.1505	0.2746	-0.2938
-0.1528	0.2720	-0.2928
-0.1538	0.2744	-0.2953
-0.1570	0.2756	-0.2958
-0.1603	0.2747	-0.2949
-0.1586	0.2753	-0.2962
-0.1583	0.2763	-0.2958
-0.1612	0.2779	-0.2950
-0.1612	0.2748	-0.2943
-0.1635	0.2776	-0.2952
-0.1637	0.2776	-0.2952
-0.1609	0.2730	-0.2949
-0.1623	0.2748	-0.2949
-0.1622	0.2726	-0.2939
-0.1627	0.2724	-0.2944
-0.1853	0.2152	-0.2807
-0.1858	0.2158	-0.2800
-0.1859	0.2123	-0.2799
-0.1856	0.2125	-0.2795
-0.1860	0.2114	-0.2771
-0.1879	0.2139	-0.2726
-0.1894	0.2154	-0.2689
-0.1934	0.2217	-0.2557
-0.1964	0.2171	-0.2438
-0.1984	0.2177	-0.2389
-0.1976	0.2139	-0.2308
-0.1996	0.2153	-0.2232
-0.2007	0.2144	-0.2150
-0.2010	0.2151	-0.2075
-0.2024	0.2153	-0.1994
-0.2065	0.2202	-0.1824
-0.2101	0.2251	-0.1650
-0.2119	0.2234	-0.1588
-0.2127	0.2246	-0.1488
-0.2134	0.2232	-0.1416
-0.2152	0.2254	-0.1344
-0.2161	0.2234	-0.1294
-0.2173	0.2227	-0.1218
-0.2198	0.2227	-0.1046
-0.2223	0.2207	-0.0864
-0.2241	0.2218	-0.0773
-0.2267	0.2247	-0.0687
-0.2269	0.2219	-0.0562
-0.2283	0.2198	-0.0497
-0.2293	0.2220	-0.0399
-0.2308	0.2201	-0.0313
-0.2323	0.2206	-0.0116
-0.2337	0.2221	-0.0031
-0.2356	0.2231	0.0039
-0.2386	0.2242	0.0079
-0.2399	0.2264	0.0161
-0.2436	0.2315	0.0232
-0.2454	0.2374	0.0371
-0.2464	0.2353	0.0472
-0.2468	0.2326	0.0573
-0.2456	0.2327	0.0553
-0.2462	0.2317	0.0567
-0.2474	0.2303	0.0593
-0.2473	0.2243	0.0668
-0.2486	0.2223	0.0736
-0.2479	0.2182	0.0780
-0.2485	0.2210	0.0796
-0.2491	0.2178	0.0803
-0.2486	0.2167	0.0954
-0.2461	0.2134	0.1088
-0.2441	0.2123	0.1194
-0.2456	0.2157	0.1280
-0.2433	0.2146	0.1392
-0.2405	0.2177	0.1507
-0.2399	0.2214	0.1577
-0.2367	0.2216	0.1650
-0.2340	0.2318	0.1669
-0.2285	0.2292	0.1665
-0.2272	0.2269	0.1658
-0.2249	0.2234	0.1661
-0.2222	0.2253	0.1707
-0.2184	0.2223	0.1738
-0.2168	0.2248	0.1742
-0.2142	0.2265	0.1763
-0.2079	0.2259	0.1795
-0.2005	0.2233	0.1834
-0.1978	0.2213	0.1822
-0.1973	0.2268	0.1848
-0.1975	0.2242	0.1854
-0.1960	0.2234	0.1848
-0.1969	0.2250	0.1824
-0.1964	0.2255	0.1837
-0.1815	0.2570	-0.2983
-0.1823	0.2568	-0.2991
-0.1828	0.2553	-0.2989
-0.1827	0.2563	-0.2979
-0.1825	0.2541	-0.2945
-0.1840	0.2523	-0.2923
-0.1862	0.2584	-0.2824
-0.1879	0.2604	-0.2697
-0.1880	0.2598	-0.2648
-0.1878	0.2583	-0.2582
-0.1888	0.2591	-0.2544
-0.1895	0.2620	-0.2503
-0.1898	0.2619	-0.2440
-0.1900	0.2593	-0.2385
-0.1902	0.2595	-0.2298
-0.1923	0.2607	-0.2219
-0.1928	0.2598	-0.2149
-0.1934	0.2580	-0.2096
-0.1935	0.2513	-0.2056
-0.1942	0.2529	-0.2007
-0.1963	0.2521	-0.1959
-0.1968	0.2474	-0.1937
-0.1997	0.2457	-0.1848
-0.2000	0.2454	-0.1781
-0.2009	0.2448	-0.1719
-0.2027	0.2404	-0.1669
-0.2038	0.2385	-0.1639
-0.2060	0.2378	-0.1572
-0.2065	0.2367	-0.1514
-0.2073	0.2338	-0.1470
-0.2100	0.2345	-0.1449
-0.2112	0.2310	-0.1338
-0.2139	0.2298	-0.1218
-0.2140	0.2328	-0.1138
-0.2164	0.2317	-0.1083
-0.2171	0.2321	-0.1011
-0.2189	0.2344	-0.0947
-0.2206	0.2390	-0.0858
-0.2214	0.2347	-0.0755
-0.2236	0.2350	-0.0656
-0.2266	0.2395	-0.0554
-0.2280	0.2394	-0.0495
-0.2282	0.2420	-0.0404
-0.2295	0.2408	-0.0339
-0.2315	0.2409	-0.0290
-0.2303	0.2386	-0.0174
-0.2320	0.2375	-0.0133
-0.2334	0.2372	-0.0019
-0.2351	0.2337	0.0034
-0.2360	0.2330	0.0069
-0.2361	0.2323	0.0130
-0.2385	0.2349	0.0170
-0.2371	0.2317	0.0235
-0.2364	0.2292	0.0212
-0.2375	0.2348	0.0214
-0.2369	0.2356	0.0236
-0.2377	0.2384	0.0232
-0.2370	0.2387	0.0249
-0.2381	0.2366	0.0283
-0.2385	0.2419	0.0348
-0.2395	0.2406	0.0383
-0.2391	0.2433	0.0452
-0.2396	0.2433	0.0514
-0.2410	0.2427	0.0564
-0.2412	0.2454	0.0615
-0.2429	0.2491	0.0663
-0.2438	0.2477	0.0715
-0.2421	0.2442	0.0776
-0.2457	0.2483	0.0858
-0.2471	0.2472	0.0990
-0.2478	0.2449	0.1063
-0.2468	0.2431	0.1143
-0.2463	0.2399	0.1187
-0.2459	0.2368	0.1233
-0.2453	0.2382	0.1265
-0.2443	0.2367	0.1330
-0.2389	0.2444	0.1492
-0.2296	0.2429	0.1614
-0.2307	0.2447	0.1621
-0.2263	0.2407	0.1666
-0.2237	0.2372	0.1709
-0.2182	0.2355	0.1766
-0.2124	0.2343	0.1795
-0.2093	0.2335	0.1802
-0.2039	0.2384	0.1810
-0.1945	0.2401	0.1828
-0.1918	0.2381	0.1835
-0.1850	0.2370	0.1848
-0.1827	0.2401	0.1836
-0.1848	0.2393	0.1857
-0.1836	0.2364	0.1847
-0.1831	0.2376	0.1840
