0.1708	1.2168	0.2378
0.1727	1.2178	0.2359
0.1709	1.2181	0.2365
0.1719	1.2163	0.2387
0.1713	1.2096	0.2413
0.1728	1.2094	0.2454
0.1715	1.2064	0.2485
0.1711	1.2026	0.2504
0.1729	1.1951	0.2548
0.1728	1.1920	0.2584
0.1724	1.1860	0.2592
0.1730	1.1825	0.2629
0.1730	1.1761	0.2646
0.1708	1.1723	0.2649
0.1704	1.1663	0.2682
0.1702	1.1607	0.2668
0.1689	1.1505	0.2656
0.1670	1.1352	0.2654
0.1677	1.1254	0.2646
0.1670	1.1138	0.2607
0.1660	1.1062	0.2608
0.1647	1.0914	0.2567
0.1645	1.0770	0.2515
0.1659	1.0688	0.2418
0.1673	1.0639	0.2380
0.1674	1.0622	0.2378
0.1704	1.0567	0.2289
0.1730	1.0506	0.2261
0.1747	1.0518	0.2250
0.1770	1.0499	0.2218
0.1768	1.0454	0.2155
0.1757	1.0444	0.2075
0.1782	1.0399	0.1950
0.1799	1.0376	0.1836
0.1823	1.0388	0.1767
0.1807	1.0362	0.1829
0.1820	1.0355	0.1800
0.1851	1.0372	0.1738
0.1856	1.0378	0.1695
0.1852	1.0338	0.1652
0.1875	1.0358	0.1554
0.1910	1.0364	0.1452
0.1935	1.0342	0.1335
0.1965	1.0403	0.1206
0.1924	1.0413	0.1064
0.1919	1.0450	0.1018
0.1898	1.0462	0.0971
0.1911	1.0497	0.0937
0.1911	1.0539	0.0916
0.1919	1.0582	0.0864
0.1923	1.0620	0.0832
0.1955	1.0695	0.0810
0.1958	1.0810	0.0791
0.1962	1.0872	0.0735
0.1982	1.1054	0.0702
0.1986	1.1114	0.0666
0.1987	1.1236	0.0705
0.1990	1.1354	0.0669
0.1989	1.1386	0.0670
0.1976	1.1469	0.0682
0.1964	1.1560	0.0719
0.1911	1.1682	0.0710
0.1871	1.1760	0.0727
0.1864	1.1820	0.0777
0.1870	1.1907	0.0876
0.1867	1.2012	0.0957
0.1855	1.2100	0.1058
0.1874	1.2140	0.1087
0.1866	1.2165	0.1101
0.1878	1.2149	0.1127
0.1851	1.2171	0.1107
0.1851	1.2157	0.1100
0.1868	1.2168	0.1110
0.1858	1.2163	0.1114
0.1518	1.2106	0.2423
0.1506	1.2080	0.2407
0.1529	1.2054	0.2401
0.1542	1.2053	0.2453
0.1588	1.2051	0.2475
0.1602	1.2016	0.2510
0.1597	1.1996	0.2523
0.1578	1.1929	0.2564
0.1591	1.1894	0.2582
0.1561	1.1800	0.2598
0.1554	1.1656	0.2618
0.1545	1.1569	0.2615
0.1556	1.1495	0.2607
0.1562	1.1449	0.2611
0.1572	1.1395	0.2596
0.1556	1.1281	0.2590
0.1555	1.1198	0.2569
0.1558	1.1128	0.2532
0.1554	1.1042	0.2483
0.1566	1.0923	0.2475
0.1573	1.0871	0.2440
0.1591	1.0798	0.2413
0.1608	1.0742	0.2355
0.1613	1.0666	0.2329
0.1639	1.0648	0.2257
0.1629	1.0582	0.2217
0.1662	1.0541	0.2136
0.1704	1.0437	0.1925
0.1723	1.0450	0.1867
0.1710	1.0452	0.1834
0.1707	1.0417	0.1814
0.1734	1.0404	0.1751
0.1748	1.0411	0.1703
0.1751	1.0415	0.1645
0.1766	1.0408	0.1560
0.1798	1.0436	0.1446
0.1779	1.0402	0.1319
0.1776	1.0393	0.1278
0.1778	1.0408	0.1211
0.1806	1.0452	0.1148
0.1816	1.0470	0.1093
0.1828	1.0482	0.1015
0.1841	1.0527	0.0967
0.1873	1.0583	0.0911
0.1887	1.0635	0.0849
0.1894	1.0778	0.0755
0.1882	1.0872	0.0736
0.1879	1.0912	0.0725
0.1871	1.0952	0.0713
0.1858	1.0975	0.0727
0.1876	1.1036	0.0690
0.1890	1.1134	0.0684
0.1877	1.1173	0.0689
0.1870	1.1222	0.0635
0.1899	1.1374	0.0679
0.1890	1.1504	0.0657
0.1895	1.1598	0.0698
0.1884	1.1701	0.0716
0.1854	1.1737	0.0732
0.1840	1.1838	0.0781
0.1831	1.1950	0.0896
0.1826	1.2061	0.0997
0.1804	1.2177	0.1115
0.1814	1.2160	0.1102
0.1795	1.2165	0.1112
0.1798	1.2149	0.1066
0.1893	1.2193	0.1587
0.1889	1.2175	0.1575
0.1891	1.2201	0.1611
0.1887	1.2188	0.1599
0.1887	1.2174	0.1658
0.1879	1.2141	0.1732
0.1854	1.2162	0.1864
0.1839	1.2139	0.1902
0.1832	1.2155	0.1969
0.1826	1.2147	0.1985
0.1813	1.2108	0.2030
0.1830	1.2111	0.2030
0.1810	1.2109	0.2060
0.1817	1.2074	0.2122
0.1825	1.2004	0.2163
0.1812	1.1979	0.2179
0.1820	1.1980	0.2192
0.1811	1.1912	0.2233
0.1819	1.1891	0.2276
0.1819	1.1793	0.2328
0.1823	1.1738	0.2349
0.1837	1.1702	0.2410
0.1835	1.1629	0.2399
0.1846	1.1604	0.2387
0.1832	1.1486	0.2400
0.1812	1.1377	0.2407
0.1832	1.1297	0.2408
0.1838	1.1178	0.2382
0.1825	1.1041	0.2339
0.1835	1.0936	0.2321
0.1838	1.0825	0.2246
0.1849	1.0746	0.2170
0.1855	1.0681	0.2104
0.1868	1.0660	0.2035
0.1893	1.0607	0.1955
0.1909	1.0563	0.1832
0.1920	1.0528	0.1694
0.1957	1.0516	0.1620
0.1959	1.0575	0.1683
0.1954	1.0567	0.1609
0.1959	1.0577	0.1606
0.1969	1.0597	0.1573
0.1980	1.0580	0.1525
0.2006	1.0589	0.1410
0.2014	1.0595	0.1348
0.2006	1.0612	0.1278
0.2034	1.0653	0.1259
0.2035	1.0717	0.1277
0.2066	1.0714	0.1237
0.2063	1.0751	0.1187
0.2083	1.0800	0.1138
0.2092	1.0897	0.1080
0.2091	1.0924	0.1040
0.2105	1.1022	0.1014
0.2120	1.1170	0.0989
0.2118	1.1274	0.0991
0.2140	1.1416	0.0979
0.2157	1.1673	0.1035
0.2155	1.1718	0.1018
0.2132	1.1798	0.1102
0.2094	1.1845	0.1194
0.2070	1.1896	0.1262
0.2069	1.1985	0.1274
0.2111	1.1977	0.1267
0.2068	1.1992	0.1289
0.2064	1.2043	0.1327
0.2086	1.2034	0.1267
0.2026	1.2072	0.1259
0.1969	1.2049	0.1302
0.1953	1.2060	0.1326
0.1984	1.2135	0.1329
0.1944	1.2149	0.1458
0.1901	1.2181	0.1558
0.1901	1.2186	0.1597
0.1891	1.2231	0.1649
0.1870	1.2214	0.1684
0.1867	1.2227	0.1688
0.1863	1.2208	0.1659
0.1870	1.2220	0.1687
0.1958	1.2020	0.1942
0.1944	1.2031	0.1966
0.1961	1.2055	0.2020
0.1926	1.1970	0.2098
0.1946	1.1982	0.2080
0.1944	1.1972	0.2105
0.1934	1.1941	0.2129
0.1948	1.1917	0.2142
0.1946	1.1908	0.2174
0.1947	1.1879	0.2191
0.1947	1.1807	0.2177
0.1947	1.1781	0.2190
0.1950	1.1748	0.2216
0.1954	1.1770	0.2240
0.1947	1.1733	0.2273
0.1930	1.1709	0.2293
0.1936	1.1685	0.2281
0.1946	1.1709	0.2284
0.1938	1.1658	0.2295
0.1939	1.1639	0.2293
0.1932	1.1546	0.2309
0.1927	1.1497	0.2295
0.1931	1.1468	0.2275
0.1929	1.1453	0.2290
0.1920	1.1361	0.2294
0.1934	1.1328	0.2267
0.1929	1.1248	0.2243
0.1956	1.1137	0.2195
0.1952	1.1006	0.2136
0.1954	1.0954	0.2104
0.1955	1.0948	0.2086
0.1955	1.0910	0.2067
0.1950	1.0870	0.2029
0.1944	1.0847	0.1997
0.1955	1.0858	0.1970
0.1988	1.0769	0.1866
0.1995	1.0771	0.1827
0.1991	1.0754	0.1785
0.2000	1.0712	0.1736
0.2014	1.0717	0.1696
0.2018	1.0743	0.1657
0.2028	1.0739	0.1630
0.2029	1.0741	0.1583
0.2031	1.0746	0.1562
0.2051	1.0693	0.1465
0.2066	1.0727	0.1386
0.2068	1.0755	0.1342
0.2078	1.0821	0.1319
0.2080	1.0855	0.1285
0.2123	1.0894	0.1256
0.2104	1.0970	0.1252
0.2085	1.1003	0.1228
0.2089	1.0967	0.1207
0.2098	1.0977	0.1209
0.2092	1.0971	0.1216
0.2109	1.0983	0.1146
0.2112	1.1010	0.1122
0.2140	1.1091	0.1074
0.2160	1.1251	0.1047
0.2150	1.1350	0.1052
0.2151	1.1432	0.1067
0.2129	1.1518	0.1093
0.2105	1.1690	0.1163
0.2083	1.1779	0.1177
0.2057	1.1821	0.1226
0.2047	1.1908	0.1255
0.2024	1.1920	0.1322
0.1997	1.1978	0.1351
0.1982	1.2027	0.1437
0.1975	1.2040	0.1492
0.1961	1.2052	0.1516
0.1956	1.2056	0.1564
0.1948	1.2049	0.1555
0.1951	1.2044	0.1555
0.1963	1.2062	0.1597
0.1954	1.2062	0.1636
0.1929	1.2041	0.1670
0.1934	1.2062	0.1704
0.1963	1.2102	0.1718
0.1962	1.2086	0.1700
0.1966	1.2057	0.1775
0.1962	1.2093	0.1807
0.1951	1.2034	0.1857
0.1931	1.2027	0.1864
0.1940	1.2064	0.1896
0.1951	1.2004	0.1931
0.1957	1.1993	0.1954
0.1970	1.2015	0.1978
0.1979	1.2023	0.2063
0.1921	1.2030	0.2184
0.1932	1.2005	0.2179
0.1939	1.1998	0.2176
0.1938	1.1948	0.2157
0.1928	1.1901	0.2180
0.1914	1.1919	0.2195
0.1928	1.1933	0.2176
0.1915	1.1898	0.2183
0.1794	1.0534	0.1209
0.1769	1.0529	0.1229
0.1789	1.0543	0.1360
0.1775	1.0485	0.1386
0.1766	1.0456	0.1435
0.1761	1.0496	0.1514
0.1748	1.0477	0.1582
0.1705	1.0484	0.1643
0.1689	1.0522	0.1716
0.1643	1.0618	0.1851
0.1640	1.0692	0.1940
0.1626	1.0741	0.1990
0.1611	1.0778	0.2040
0.1603	1.0749	0.2022
0.1613	1.0745	0.2018
0.1615	1.0801	0.2065
0.1595	1.0847	0.2096
0.1584	1.0863	0.2124
0.1581	1.1011	0.2236
0.1577	1.1104	0.2279
0.1572	1.1120	0.2274
0.1598	1.1001	0.2131
0.1609	1.1063	0.2133
0.1607	1.1098	0.2077
0.1596	1.1227	0.2065
0.1553	1.1316	0.1996
0.1608	1.1331	0.1790
0.1729	1.1297	0.1702
0.1707	1.1291	0.1761
0.1589	1.1425	0.1817
0.1522	1.1489	0.1836
0.1551	1.1547	0.1858
0.1605	1.1530	0.1851
0.1648	1.1494	0.1843
0.1602	1.1594	0.1801
0.1665	1.1608	0.1686
0.1634	1.1671	0.1635
0.1642	1.1735	0.1644
0.1674	1.1787	0.1648
0.1711	1.1835	0.1622
0.1752	1.1863	0.1594
0.1731	1.1928	0.1558
0.1768	1.2044	0.1465
0.1773	1.2107	0.1322
0.1767	1.2092	0.1254
0.1776	1.2108	0.1282
0.1783	1.2143	0.1319
0.1783	1.2092	0.1271
0.1759	1.2137	0.1299
0.1769	1.2167	0.1313
