-0.2199	1.1920	0.0671
-0.2200	1.1895	0.0643
-0.2198	1.1943	0.0643
-0.2199	1.1934	0.0651
-0.2205	1.1920	0.0635
-0.2179	1.1896	0.0622
-0.2190	1.1882	0.0558
-0.2195	1.1816	0.0544
-0.2178	1.1762	0.0503
-0.2206	1.1752	0.0489
-0.2202	1.1696	0.0455
-0.2191	1.1713	0.0435
-0.2174	1.1660	0.0406
-0.2193	1.1674	0.0405
-0.2199	1.1689	0.0369
-0.2190	1.1635	0.0371
-0.2186	1.1624	0.0366
-0.2211	1.1556	0.0318
-0.2209	1.1533	0.0257
-0.2185	1.1473	0.0262
-0.2197	1.1448	0.0250
-0.2213	1.1393	0.0224
-0.2215	1.1355	0.0234
-0.2228	1.1310	0.0238
-0.2219	1.1269	0.0226
-0.2227	1.1228	0.0250
-0.2178	1.1011	0.0205
-0.2153	1.0874	0.0250
-0.2137	1.0787	0.0263
-0.2135	1.0720	0.0288
-0.2131	1.0673	0.0332
-0.2143	1.0607	0.0338
-0.2167	1.0580	0.0390
-0.2162	1.0495	0.0474
-0.2197	1.0425	0.0546
-0.2201	1.0356	0.0591
-0.2188	1.0325	0.0625
-0.2186	1.0263	0.0671
-0.2184	1.0222	0.0732
-0.2169	1.0167	0.0832
-0.2193	1.0156	0.0927
-0.2226	1.0176	0.0993
-0.2280	1.0175	0.1034
-0.2327	1.0237	0.1192
-0.2315	1.0215	0.1304
-0.2319	1.0214	0.1407
-0.2312	1.0229	0.1454
-0.2330	1.0281	0.1446
-0.2350	1.0317	0.1440
-0.2362	1.0325	0.1446
-0.2381	1.0431	0.1532
-0.2398	1.0531	0.1668
-0.2393	1.0522	0.1669
-0.2411	1.0598	0.1746
-0.2411	1.0657	0.1749
-0.2416	1.0700	0.1775
-0.2435	1.0716	0.1803
-0.2418	1.0766	0.1852
-0.2445	1.0770	0.1820
-0.2503	1.0928	0.1873
-0.2496	1.0965	0.1884
-0.2487	1.1057	0.1922
-0.2488	1.1101	0.1948
-0.2475	1.1135	0.1942
-0.2447	1.1173	0.1953
-0.2486	1.1195	0.1977
-0.2460	1.1337	0.1973
-0.2460	1.1460	0.1930
-0.2426	1.1484	0.1949
-0.2412	1.1527	0.1919
-0.2409	1.1580	0.1921
-0.2416	1.1660	0.1915
-0.2391	1.1677	0.1929
-0.2359	1.1709	0.1890
-0.2315	1.1811	0.1816
-0.2273	1.1864	0.1799
-0.2271	1.1895	0.1722
-0.2277	1.1939	0.1674
-0.2246	1.1918	0.1711
-0.2269	1.1950	0.1703
-0.2267	1.1932	0.1680
-0.2286	1.1928	0.1625
-0.2280	1.1940	0.1652
-0.2310	1.1980	0.1580
-0.2335	1.2028	0.1434
-0.2316	1.2072	0.1388
-0.2255	1.2012	0.1350
-0.2267	1.2038	0.1355
-0.2294	1.2086	0.1370
-0.2272	1.2046	0.1338
-0.2278	1.2084	0.1364
-0.2289	1.2080	0.1325
-0.2260	1.2070	0.1366
-0.2271	1.2092	0.1354
-0.2343	1.1698	0.0756
-0.2359	1.1692	0.0735
-0.2329	1.1692	0.0772
-0.2340	1.1673	0.0740
-0.2333	1.1638	0.0725
-0.2328	1.1626	0.0684
-0.2333	1.1574	0.0639
-0.2345	1.1557	0.0628
-0.2340	1.1566	0.0600
-0.2333	1.1506	0.0628
-0.2342	1.1501	0.0596
-0.2327	1.1469	0.0575
-0.2334	1.1438	0.0577
-0.2318	1.1366	0.0557
-0.2302	1.1229	0.0543
-0.2309	1.1214	0.0542
-0.2291	1.1169	0.0548
-0.2311	1.1136	0.0539
-0.2285	1.1049	0.0556
-0.2288	1.0995	0.0549
-0.2298	1.0979	0.0550
-0.2294	1.0847	0.0601
-0.2303	1.0822	0.0638
-0.2281	1.0732	0.0639
-0.2263	1.0618	0.0660
-0.2291	1.0637	0.0717
-0.2297	1.0584	0.0738
-0.2295	1.0514	0.0763
-0.2302	1.0512	0.0796
-0.2314	1.0532	0.0876
-0.2305	1.0486	0.0920
-0.2316	1.0461	0.0972
-0.2329	1.0438	0.1021
-0.2339	1.0442	0.1108
-0.2344	1.0411	0.1140
-0.2333	1.0413	0.1176
-0.2346	1.0422	0.1158
-0.2359	1.0409	0.1188
-0.2374	1.0452	0.1273
-0.2391	1.0530	0.1332
-0.2412	1.0560	0.1378
-0.2415	1.0564	0.1402
-0.2428	1.0578	0.1463
-0.2437	1.0623	0.1526
-0.2448	1.0656	0.1591
-0.2450	1.0693	0.1645
-0.2484	1.0913	0.1676
-0.2465	1.1005	0.1686
-0.2487	1.1055	0.1710
-0.2480	1.1119	0.1709
-0.2483	1.1150	0.1722
-0.2490	1.1199	0.1728
-0.2495	1.1281	0.1709
-0.2462	1.1296	0.1649
-0.2459	1.1366	0.1639
-0.2459	1.1402	0.1598
-0.2453	1.1433	0.1541
-0.2452	1.1515	0.1508
-0.2439	1.1542	0.1488
-0.2462	1.1595	0.1411
-0.2447	1.1648	0.1379
-0.2415	1.1694	0.1261
-0.2393	1.1709	0.1141
-0.2360	1.1714	0.1067
-0.2364	1.1700	0.0955
-0.2362	1.1693	0.0911
-0.2352	1.1664	0.0892
-0.2356	1.1650	0.0861
-0.2353	1.1705	0.0848
-0.2372	1.1673	0.0805
-0.2338	1.1683	0.0766
-0.2369	1.1701	0.0727
-0.2341	1.1677	0.0762
-0.2353	1.1651	0.0735
-0.2350	1.1686	0.0735
-0.2348	1.1693	0.0739
-0.2341	1.1609	0.0766
-0.2334	1.1622	0.0759
-0.2253	1.2203	0.0333
-0.2275	1.2203	0.0323
-0.2289	1.2173	0.0311
-0.2277	1.2139	0.0294
-0.2290	1.2127	0.0263
-0.2297	1.2091	0.0233
-0.2299	1.2118	0.0192
-0.2290	1.2066	0.0195
-0.2240	1.2026	0.0147
-0.2192	1.1867	0.0093
-0.2195	1.1858	0.0055
-0.2197	1.1823	0.0019
-0.2202	1.1734	0.0041
-0.2184	1.1712	-0.0013
-0.2140	1.1581	-0.0018
-0.2117	1.1429	0.0013
-0.2056	1.1211	0.0021
-0.2075	1.1065	0.0089
-0.2080	1.0999	0.0126
-0.2086	1.0926	0.0156
-0.2100	1.0888	0.0178
-0.2097	1.0866	0.0204
-0.2104	1.0790	0.0277
-0.2129	1.0797	0.0331
-0.2149	1.0657	0.0452
-0.2178	1.0575	0.0557
-0.2203	1.0543	0.0638
-0.2225	1.0543	0.0749
-0.2250	1.0502	0.0852
-0.2274	1.0530	0.0918
-0.2295	1.0553	0.0966
-0.2271	1.0560	0.1014
-0.2292	1.0534	0.1100
-0.2334	1.0564	0.1232
-0.2389	1.0649	0.1349
-0.2293	1.0335	0.1432
-0.2270	1.0288	0.1454
-0.2240	1.0275	0.1476
-0.2222	1.0299	0.1433
-0.2216	1.0309	0.1422
-0.2247	1.0321	0.1448
-0.2233	1.0289	0.1451
-0.2237	1.0307	0.1454
-0.2231	1.0281	0.1481
-0.2193	1.0518	0.1712
-0.2210	1.0521	0.1673
-0.2203	1.0529	0.1693
-0.2199	1.0533	0.1705
-0.2201	1.0532	0.1719
-0.2211	1.0643	0.1812
-0.2223	1.0650	0.1797
-0.2220	1.0637	0.1833
-0.2228	1.0715	0.1857
-0.2253	1.0755	0.1886
-0.2233	1.0773	0.1904
-0.2230	1.0830	0.1932
-0.2239	1.0898	0.1944
-0.2195	1.0940	0.1982
-0.2190	1.1020	0.2007
-0.2189	1.1061	0.2007
-0.2209	1.1121	0.2034
-0.2210	1.1152	0.2004
-0.2224	1.1198	0.1976
-0.2226	1.1255	0.1951
-0.2196	1.1272	0.1936
-0.2249	1.1429	0.1908
-0.2228	1.1586	0.1877
-0.2132	1.1558	0.1715
-0.2110	1.1617	0.1680
-0.2075	1.1635	0.1639
-0.2042	1.1639	0.1580
-0.2057	1.1718	0.1602
-0.2088	1.1762	0.1580
-0.2137	1.1795	0.1435
-0.2110	1.1802	0.1468
-0.2108	1.1840	0.1454
-0.1976	1.1086	0.0330
-0.2018	1.1049	0.0346
-0.1990	1.0967	0.0311
-0.2002	1.0926	0.0321
-0.2006	1.0821	0.0307
-0.2013	1.0803	0.0341
-0.1987	1.0754	0.0377
-0.2002	1.0659	0.0359
-0.1997	1.0481	0.0392
-0.2014	1.0378	0.0390
-0.2038	1.0328	0.0420
-0.2043	1.0331	0.0483
-0.2024	1.0409	0.0592
-0.2064	1.0364	0.0627
-0.2086	1.0421	0.0744
-0.2070	1.0395	0.0760
-0.2086	1.0458	0.0865
-0.2116	1.0605	0.1076
-0.2113	1.0616	0.1156
-0.2136	1.0635	0.1181
-0.2118	1.0683	0.1258
-0.2131	1.0778	0.1325
-0.2148	1.0832	0.1392
-0.2146	1.0903	0.1441
-0.2151	1.0949	0.1455
-0.2148	1.0981	0.1448
-0.2175	1.1104	0.1553
-0.2187	1.1171	0.1561
-0.2188	1.1212	0.1576
-0.2191	1.1243	0.1585
-0.2221	1.1287	0.1583
-0.2207	1.1301	0.1542
-0.2199	1.1383	0.1553
-0.2220	1.1430	0.1530
-0.2210	1.1475	0.1511
-0.2197	1.1564	0.1487
-0.2208	1.1655	0.1429
-0.2170	1.1719	0.1316
-0.2195	1.1741	0.1238
-0.2164	1.1712	0.1184
-0.2144	1.1729	0.1109
-0.2160	1.1743	0.1080
-0.2158	1.1699	0.1015
-0.2138	1.1716	0.0981
-0.2126	1.1735	0.0910
-0.2119	1.1696	0.0898
-0.2156	1.1743	0.0886
-0.2142	1.1735	0.0881
-0.2092	1.1615	0.0582
-0.2078	1.1616	0.0561
-0.2095	1.1639	0.0596
-0.2078	1.1630	0.0565
-0.2108	1.1638	0.0574
-0.2092	1.1634	0.0581
-0.2060	1.1638	0.0587
-0.2087	1.1613	0.0575
-0.2077	1.1589	0.0531
